ply
format ascii 1.0
element vertex 2050
property float x
property float y
property float z
end_header
1117.000 408.000 89.012
1118.000 408.000 89.292
1119.000 408.000 89.478
1120.000 408.000 89.356
1121.000 408.000 88.962
1122.000 408.000 88.733
1123.000 408.000 88.591
1124.000 408.000 88.444
1125.000 408.000 88.419
1126.000 408.000 88.488
1127.000 408.000 88.711
1128.000 408.000 88.633
1129.000 408.000 88.723
1130.000 408.000 89.257
1131.000 408.000 89.562
1132.000 408.000 89.724
1133.000 408.000 89.651
1134.000 408.000 89.061
1135.000 408.000 88.564
1136.000 408.000 88.687
1137.000 408.000 88.898
1138.000 408.000 88.729
1139.000 408.000 88.598
1140.000 408.000 88.966
1141.000 408.000 89.349
1142.000 408.000 89.496
1143.000 408.000 89.104
1144.000 408.000 88.358
1145.000 408.000 87.635
1146.000 408.000 87.350
1147.000 408.000 87.174
1148.000 408.000 86.367
1149.000 408.000 83.305
1150.000 408.000 77.893
1151.000 408.000 74.952
1152.000 408.000 75.477
1153.000 408.000 74.799
1154.000 408.000 70.312
767.000 409.000 70.867
768.000 409.000 75.931
769.000 409.000 77.284
770.000 409.000 77.917
771.000 409.000 80.276
772.000 409.000 84.152
773.000 409.000 86.469
774.000 409.000 86.410
775.000 409.000 85.619
776.000 409.000 85.641
777.000 409.000 87.123
778.000 409.000 88.874
779.000 409.000 89.541
780.000 409.000 89.367
781.000 409.000 88.954
782.000 409.000 88.894
783.000 409.000 89.367
784.000 409.000 89.621
785.000 409.000 89.748
786.000 409.000 89.635
787.000 409.000 89.548
788.000 409.000 89.634
789.000 409.000 89.156
790.000 409.000 88.712
791.000 409.000 88.736
792.000 409.000 88.871
793.000 409.000 88.872
794.000 409.000 89.042
795.000 409.000 88.962
796.000 409.000 89.072
797.000 409.000 89.255
798.000 409.000 89.111
799.000 409.000 88.501
800.000 409.000 88.593
801.000 409.000 89.269
802.000 409.000 89.458
803.000 409.000 89.444
804.000 409.000 89.492
805.000 409.000 89.008
806.000 409.000 88.525
807.000 409.000 88.471
808.000 409.000 88.352
809.000 409.000 88.141
810.000 409.000 88.264
811.000 409.000 88.500
812.000 409.000 88.618
813.000 409.000 88.513
814.000 409.000 88.522
815.000 409.000 88.639
816.000 409.000 88.755
817.000 409.000 88.729
818.000 409.000 88.832
819.000 409.000 88.792
820.000 409.000 88.265
821.000 409.000 88.181
822.000 409.000 88.900
823.000 409.000 89.286
824.000 409.000 88.892
825.000 409.000 88.568
826.000 409.000 88.623
827.000 409.000 88.961
828.000 409.000 88.942
829.000 409.000 88.908
830.000 409.000 88.940
831.000 409.000 88.645
832.000 409.000 88.457
833.000 409.000 88.675
834.000 409.000 88.609
835.000 409.000 88.255
836.000 409.000 88.195
837.000 409.000 88.498
838.000 409.000 89.037
839.000 409.000 89.198
840.000 409.000 89.055
841.000 409.000 88.986
842.000 409.000 88.691
843.000 409.000 88.315
844.000 409.000 88.300
845.000 409.000 88.627
846.000 409.000 88.734
847.000 409.000 88.913
848.000 409.000 88.668
849.000 409.000 88.379
850.000 409.000 88.682
851.000 409.000 89.499
852.000 409.000 90.075
853.000 409.000 90.019
854.000 409.000 89.875
855.000 409.000 89.816
856.000 409.000 89.558
857.000 409.000 89.432
858.000 409.000 89.305
859.000 409.000 88.652
860.000 409.000 88.140
861.000 409.000 88.134
862.000 409.000 88.380
863.000 409.000 88.566
864.000 409.000 88.707
865.000 409.000 88.699
866.000 409.000 88.802
867.000 409.000 89.063
868.000 409.000 89.435
869.000 409.000 89.863
870.000 409.000 89.962
871.000 409.000 90.038
872.000 409.000 90.212
873.000 409.000 89.901
874.000 409.000 89.133
875.000 409.000 88.430
876.000 409.000 88.279
877.000 409.000 88.689
878.000 409.000 89.133
879.000 409.000 89.019
880.000 409.000 88.537
881.000 409.000 88.273
882.000 409.000 88.405
883.000 409.000 88.653
884.000 409.000 89.105
885.000 409.000 89.162
886.000 409.000 89.009
887.000 409.000 89.392
888.000 409.000 89.733
889.000 409.000 89.366
890.000 409.000 88.714
891.000 409.000 88.551
892.000 409.000 88.785
893.000 409.000 88.886
894.000 409.000 88.922
895.000 409.000 88.957
896.000 409.000 89.541
897.000 409.000 89.939
898.000 409.000 89.926
899.000 409.000 89.778
900.000 409.000 89.487
901.000 409.000 89.095
902.000 409.000 88.963
903.000 409.000 88.844
904.000 409.000 88.415
905.000 409.000 88.098
906.000 409.000 88.243
907.000 409.000 88.860
908.000 409.000 89.648
909.000 409.000 89.667
910.000 409.000 88.596
911.000 409.000 87.801
912.000 409.000 88.055
913.000 409.000 88.434
914.000 409.000 88.746
915.000 409.000 89.438
916.000 409.000 89.823
917.000 409.000 89.901
918.000 409.000 89.834
919.000 409.000 89.623
920.000 409.000 89.332
921.000 409.000 88.995
922.000 409.000 89.070
923.000 409.000 89.674
924.000 409.000 90.112
925.000 409.000 90.212
926.000 409.000 90.028
927.000 409.000 89.771
928.000 409.000 89.604
929.000 409.000 88.888
930.000 409.000 88.050
931.000 409.000 87.961
932.000 409.000 88.473
933.000 409.000 89.290
934.000 409.000 89.664
935.000 409.000 89.363
936.000 409.000 88.889
937.000 409.000 88.592
938.000 409.000 88.507
939.000 409.000 88.791
940.000 409.000 89.038
941.000 409.000 88.795
942.000 409.000 88.639
943.000 409.000 89.111
944.000 409.000 89.609
945.000 409.000 89.638
946.000 409.000 89.515
947.000 409.000 89.268
948.000 409.000 89.224
949.000 409.000 89.220
950.000 409.000 89.024
951.000 409.000 88.962
952.000 409.000 88.920
953.000 409.000 88.903
954.000 409.000 88.990
955.000 409.000 89.292
956.000 409.000 89.619
957.000 409.000 89.505
958.000 409.000 89.084
959.000 409.000 89.055
960.000 409.000 89.420
961.000 409.000 89.566
962.000 409.000 89.448
963.000 409.000 89.411
964.000 409.000 89.278
965.000 409.000 88.790
966.000 409.000 88.229
967.000 409.000 87.924
968.000 409.000 88.182
969.000 409.000 88.820
970.000 409.000 88.859
971.000 409.000 88.319
972.000 409.000 88.129
973.000 409.000 88.309
974.000 409.000 88.210
975.000 409.000 88.149
976.000 409.000 88.594
977.000 409.000 89.245
978.000 409.000 89.359
979.000 409.000 89.539
980.000 409.000 89.978
981.000 409.000 89.890
982.000 409.000 89.182
983.000 409.000 88.444
984.000 409.000 88.132
985.000 409.000 88.406
986.000 409.000 88.521
987.000 409.000 88.292
988.000 409.000 88.540
989.000 409.000 89.023
990.000 409.000 88.887
991.000 409.000 88.700
992.000 409.000 88.873
993.000 409.000 88.895
994.000 409.000 89.029
995.000 409.000 89.518
996.000 409.000 89.616
997.000 409.000 88.832
998.000 409.000 88.281
999.000 409.000 88.296
1000.000 409.000 88.801
1001.000 409.000 89.199
1002.000 409.000 89.158
1003.000 409.000 88.913
1004.000 409.000 88.821
1005.000 409.000 89.111
1006.000 409.000 89.178
1007.000 409.000 89.210
1008.000 409.000 89.252
1009.000 409.000 88.957
1010.000 409.000 88.997
1011.000 409.000 89.262
1012.000 409.000 89.357
1013.000 409.000 89.357
1014.000 409.000 89.218
1015.000 409.000 89.148
1016.000 409.000 89.033
1017.000 409.000 89.016
1018.000 409.000 88.742
1019.000 409.000 88.586
1020.000 409.000 88.695
1021.000 409.000 88.988
1022.000 409.000 89.474
1023.000 409.000 89.681
1024.000 409.000 89.845
1025.000 409.000 89.620
1026.000 409.000 88.933
1027.000 409.000 88.421
1028.000 409.000 88.663
1029.000 409.000 89.285
1030.000 409.000 89.656
1031.000 409.000 89.631
1032.000 409.000 89.343
1033.000 409.000 89.128
1034.000 409.000 89.335
1035.000 409.000 89.266
1036.000 409.000 88.824
1037.000 409.000 88.331
1038.000 409.000 88.226
1039.000 409.000 88.402
1040.000 409.000 88.635
1041.000 409.000 88.601
1042.000 409.000 88.826
1043.000 409.000 89.514
1044.000 409.000 89.832
1045.000 409.000 89.623
1046.000 409.000 89.435
1047.000 409.000 89.152
1048.000 409.000 89.079
1049.000 409.000 89.368
1050.000 409.000 89.622
1051.000 409.000 89.693
1052.000 409.000 89.745
1053.000 409.000 89.415
1054.000 409.000 88.938
1055.000 409.000 89.456
1056.000 409.000 89.993
1057.000 409.000 89.728
1058.000 409.000 89.663
1059.000 409.000 89.965
1060.000 409.000 89.732
1061.000 409.000 88.847
1062.000 409.000 88.394
1063.000 409.000 88.556
1064.000 409.000 88.537
1065.000 409.000 88.520
1066.000 409.000 88.694
1067.000 409.000 88.975
1068.000 409.000 89.652
1069.000 409.000 89.937
1070.000 409.000 89.607
1071.000 409.000 89.050
1072.000 409.000 89.191
1073.000 409.000 89.647
1074.000 409.000 89.336
1075.000 409.000 88.814
1076.000 409.000 88.866
1077.000 409.000 89.169
1078.000 409.000 88.932
1079.000 409.000 89.072
1080.000 409.000 89.746
1081.000 409.000 90.243
1082.000 409.000 89.891
1083.000 409.000 89.002
1084.000 409.000 88.360
1085.000 409.000 88.375
1086.000 409.000 88.581
1087.000 409.000 88.650
1088.000 409.000 88.704
1089.000 409.000 88.898
1090.000 409.000 88.785
1091.000 409.000 88.807
1092.000 409.000 88.977
1093.000 409.000 89.091
1094.000 409.000 88.962
1095.000 409.000 88.748
1096.000 409.000 88.557
1097.000 409.000 88.384
1098.000 409.000 88.244
1099.000 409.000 88.203
1100.000 409.000 88.435
1101.000 409.000 88.708
1102.000 409.000 88.999
1103.000 409.000 89.389
1104.000 409.000 89.351
1105.000 409.000 88.902
1106.000 409.000 88.508
1107.000 409.000 88.382
1108.000 409.000 88.585
1109.000 409.000 88.878
1110.000 409.000 89.297
1111.000 409.000 89.525
1112.000 409.000 89.285
1113.000 409.000 88.922
1114.000 409.000 89.071
1115.000 409.000 89.249
1116.000 409.000 89.269
1117.000 409.000 89.367
1118.000 409.000 89.655
1119.000 409.000 89.751
1120.000 409.000 89.498
1121.000 409.000 88.993
1122.000 409.000 88.682
1123.000 409.000 88.621
1124.000 409.000 88.519
1125.000 409.000 88.546
1126.000 409.000 88.669
1127.000 409.000 88.693
1128.000 409.000 88.382
1129.000 409.000 88.370
1130.000 409.000 89.063
1131.000 409.000 89.555
1132.000 409.000 89.528
1133.000 409.000 89.189
1134.000 409.000 88.816
1135.000 409.000 88.782
1136.000 409.000 88.860
1137.000 409.000 88.809
1138.000 409.000 88.260
1139.000 409.000 87.319
1140.000 409.000 86.830
1141.000 409.000 87.036
1142.000 409.000 87.190
1143.000 409.000 86.320
1144.000 409.000 83.342
1145.000 409.000 78.951
1146.000 409.000 76.725
1147.000 409.000 76.456
1148.000 409.000 75.964
1149.000 409.000 71.469
772.000 410.000 71.496
773.000 410.000 75.194
774.000 410.000 74.189
775.000 410.000 72.723
776.000 410.000 73.441
777.000 410.000 77.415
778.000 410.000 83.175
779.000 410.000 86.366
780.000 410.000 86.614
781.000 410.000 86.085
782.000 410.000 86.668
783.000 410.000 88.390
784.000 410.000 89.627
785.000 410.000 90.172
786.000 410.000 90.240
787.000 410.000 90.000
788.000 410.000 89.490
789.000 410.000 88.487
790.000 410.000 88.111
791.000 410.000 88.571
792.000 410.000 88.807
793.000 410.000 88.612
794.000 410.000 88.738
795.000 410.000 88.793
796.000 410.000 88.997
797.000 410.000 89.171
798.000 410.000 89.195
799.000 410.000 89.094
800.000 410.000 89.359
801.000 410.000 89.511
802.000 410.000 89.376
803.000 410.000 89.499
804.000 410.000 89.236
805.000 410.000 88.330
806.000 410.000 87.787
807.000 410.000 87.918
808.000 410.000 88.150
809.000 410.000 88.109
810.000 410.000 88.215
811.000 410.000 88.484
812.000 410.000 88.621
813.000 410.000 88.285
814.000 410.000 88.191
815.000 410.000 88.521
816.000 410.000 88.822
817.000 410.000 88.896
818.000 410.000 89.247
819.000 410.000 89.385
820.000 410.000 88.810
821.000 410.000 88.428
822.000 410.000 88.824
823.000 410.000 89.060
824.000 410.000 88.664
825.000 410.000 88.473
826.000 410.000 88.872
827.000 410.000 89.195
828.000 410.000 89.053
829.000 410.000 88.979
830.000 410.000 88.900
831.000 410.000 88.514
832.000 410.000 88.326
833.000 410.000 88.362
834.000 410.000 88.242
835.000 410.000 88.115
836.000 410.000 88.207
837.000 410.000 88.466
838.000 410.000 88.818
839.000 410.000 88.720
840.000 410.000 88.402
841.000 410.000 88.490
842.000 410.000 88.531
843.000 410.000 88.330
844.000 410.000 88.316
845.000 410.000 88.490
846.000 410.000 88.358
847.000 410.000 88.305
848.000 410.000 88.132
849.000 410.000 88.217
850.000 410.000 88.848
851.000 410.000 89.717
852.000 410.000 90.246
853.000 410.000 90.216
854.000 410.000 90.196
855.000 410.000 90.053
856.000 410.000 89.388
857.000 410.000 88.983
858.000 410.000 89.071
859.000 410.000 88.818
860.000 410.000 88.341
861.000 410.000 88.102
862.000 410.000 88.338
863.000 410.000 88.746
864.000 410.000 88.895
865.000 410.000 88.669
866.000 410.000 88.665
867.000 410.000 89.001
868.000 410.000 89.358
869.000 410.000 89.664
870.000 410.000 89.540
871.000 410.000 89.471
872.000 410.000 89.757
873.000 410.000 89.612
874.000 410.000 89.042
875.000 410.000 88.486
876.000 410.000 88.553
877.000 410.000 88.952
878.000 410.000 89.096
879.000 410.000 88.864
880.000 410.000 88.582
881.000 410.000 88.588
882.000 410.000 88.882
883.000 410.000 89.160
884.000 410.000 89.594
885.000 410.000 89.524
886.000 410.000 89.075
887.000 410.000 89.232
888.000 410.000 89.459
889.000 410.000 89.212
890.000 410.000 88.741
891.000 410.000 88.531
892.000 410.000 88.635
893.000 410.000 88.642
894.000 410.000 88.535
895.000 410.000 88.523
896.000 410.000 88.919
897.000 410.000 89.269
898.000 410.000 89.371
899.000 410.000 89.465
900.000 410.000 89.309
901.000 410.000 88.935
902.000 410.000 89.025
903.000 410.000 89.244
904.000 410.000 88.988
905.000 410.000 88.477
906.000 410.000 88.432
907.000 410.000 89.017
908.000 410.000 89.688
909.000 410.000 89.813
910.000 410.000 89.025
911.000 410.000 88.289
912.000 410.000 88.396
913.000 410.000 88.577
914.000 410.000 88.623
915.000 410.000 89.143
916.000 410.000 89.515
917.000 410.000 89.687
918.000 410.000 90.026
919.000 410.000 90.145
920.000 410.000 89.801
921.000 410.000 89.327
922.000 410.000 89.461
923.000 410.000 90.196
924.000 410.000 90.626
925.000 410.000 90.466
926.000 410.000 89.865
927.000 410.000 89.264
928.000 410.000 89.181
929.000 410.000 88.877
930.000 410.000 88.221
931.000 410.000 87.958
932.000 410.000 88.324
933.000 410.000 89.031
934.000 410.000 89.367
935.000 410.000 89.315
936.000 410.000 89.129
937.000 410.000 89.050
938.000 410.000 89.106
939.000 410.000 89.123
940.000 410.000 89.139
941.000 410.000 89.006
942.000 410.000 89.172
943.000 410.000 89.623
944.000 410.000 89.786
945.000 410.000 89.670
946.000 410.000 89.423
947.000 410.000 88.947
948.000 410.000 88.760
949.000 410.000 88.811
950.000 410.000 88.615
951.000 410.000 88.871
952.000 410.000 89.255
953.000 410.000 89.225
954.000 410.000 89.050
955.000 410.000 89.162
956.000 410.000 89.412
957.000 410.000 89.314
958.000 410.000 88.570
959.000 410.000 88.109
960.000 410.000 88.429
961.000 410.000 88.894
962.000 410.000 88.911
963.000 410.000 89.065
964.000 410.000 89.358
965.000 410.000 89.129
966.000 410.000 88.715
967.000 410.000 88.170
968.000 410.000 87.959
969.000 410.000 88.447
970.000 410.000 88.788
971.000 410.000 88.653
972.000 410.000 88.733
973.000 410.000 88.789
974.000 410.000 88.367
975.000 410.000 88.013
976.000 410.000 88.245
977.000 410.000 88.858
978.000 410.000 88.998
979.000 410.000 89.200
980.000 410.000 89.819
981.000 410.000 90.251
982.000 410.000 89.969
983.000 410.000 89.143
984.000 410.000 88.474
985.000 410.000 88.537
986.000 410.000 88.572
987.000 410.000 88.197
988.000 410.000 88.221
989.000 410.000 88.722
990.000 410.000 88.680
991.000 410.000 88.436
992.000 410.000 88.684
993.000 410.000 88.942
994.000 410.000 89.094
995.000 410.000 89.434
996.000 410.000 89.533
997.000 410.000 88.985
998.000 410.000 88.625
999.000 410.000 88.424
1000.000 410.000 88.482
1001.000 410.000 88.759
1002.000 410.000 88.908
1003.000 410.000 88.961
1004.000 410.000 88.836
1005.000 410.000 88.964
1006.000 410.000 89.212
1007.000 410.000 89.413
1008.000 410.000 89.446
1009.000 410.000 89.179
1010.000 410.000 89.270
1011.000 410.000 89.492
1012.000 410.000 89.597
1013.000 410.000 89.688
1014.000 410.000 89.750
1015.000 410.000 89.481
1016.000 410.000 88.913
1017.000 410.000 88.800
1018.000 410.000 89.101
1019.000 410.000 89.571
1020.000 410.000 89.658
1021.000 410.000 89.376
1022.000 410.000 89.336
1023.000 410.000 89.457
1024.000 410.000 89.865
1025.000 410.000 89.772
1026.000 410.000 88.852
1027.000 410.000 88.305
1028.000 410.000 88.647
1029.000 410.000 89.296
1030.000 410.000 89.463
1031.000 410.000 89.399
1032.000 410.000 89.461
1033.000 410.000 89.552
1034.000 410.000 89.850
1035.000 410.000 89.937
1036.000 410.000 89.572
1037.000 410.000 89.065
1038.000 410.000 88.836
1039.000 410.000 88.681
1040.000 410.000 88.770
1041.000 410.000 89.005
1042.000 410.000 89.282
1043.000 410.000 89.381
1044.000 410.000 89.284
1045.000 410.000 89.264
1046.000 410.000 89.396
1047.000 410.000 89.385
1048.000 410.000 89.303
1049.000 410.000 89.277
1050.000 410.000 89.521
1051.000 410.000 89.754
1052.000 410.000 89.660
1053.000 410.000 89.159
1054.000 410.000 88.651
1055.000 410.000 89.044
1056.000 410.000 89.460
1057.000 410.000 89.425
1058.000 410.000 89.564
1059.000 410.000 89.788
1060.000 410.000 89.541
1061.000 410.000 88.738
1062.000 410.000 88.294
1063.000 410.000 88.413
1064.000 410.000 88.381
1065.000 410.000 88.138
1066.000 410.000 88.066
1067.000 410.000 88.471
1068.000 410.000 89.418
1069.000 410.000 89.852
1070.000 410.000 89.407
1071.000 410.000 88.748
1072.000 410.000 88.632
1073.000 410.000 89.000
1074.000 410.000 89.166
1075.000 410.000 89.193
1076.000 410.000 89.315
1077.000 410.000 89.471
1078.000 410.000 89.338
1079.000 410.000 89.423
1080.000 410.000 89.812
1081.000 410.000 89.993
1082.000 410.000 89.482
1083.000 410.000 88.717
1084.000 410.000 88.277
1085.000 410.000 88.306
1086.000 410.000 88.179
1087.000 410.000 88.046
1088.000 410.000 88.246
1089.000 410.000 88.717
1090.000 410.000 89.013
1091.000 410.000 89.394
1092.000 410.000 89.556
1093.000 410.000 89.325
1094.000 410.000 88.888
1095.000 410.000 88.716
1096.000 410.000 88.736
1097.000 410.000 88.673
1098.000 410.000 88.588
1099.000 410.000 88.571
1100.000 410.000 88.717
1101.000 410.000 88.884
1102.000 410.000 89.045
1103.000 410.000 89.300
1104.000 410.000 89.279
1105.000 410.000 88.877
1106.000 410.000 88.270
1107.000 410.000 87.875
1108.000 410.000 88.133
1109.000 410.000 88.672
1110.000 410.000 89.020
1111.000 410.000 89.222
1112.000 410.000 89.122
1113.000 410.000 88.936
1114.000 410.000 88.973
1115.000 410.000 89.020
1116.000 410.000 89.305
1117.000 410.000 89.550
1118.000 410.000 89.569
1119.000 410.000 89.628
1120.000 410.000 89.688
1121.000 410.000 89.557
1122.000 410.000 89.244
1123.000 410.000 88.882
1124.000 410.000 88.306
1125.000 410.000 88.332
1126.000 410.000 88.852
1127.000 410.000 88.911
1128.000 410.000 88.497
1129.000 410.000 88.246
1130.000 410.000 88.666
1131.000 410.000 89.073
1132.000 410.000 88.888
1133.000 410.000 88.149
1134.000 410.000 87.207
1135.000 410.000 86.699
1136.000 410.000 86.390
1137.000 410.000 86.059
1138.000 410.000 84.086
1139.000 410.000 79.983
1140.000 410.000 76.988
1141.000 410.000 76.922
1142.000 410.000 76.819
1143.000 410.000 74.806
1144.000 410.000 69.559
778.000 411.000 70.465
779.000 411.000 75.192
780.000 411.000 75.497
781.000 411.000 75.361
782.000 411.000 78.128
783.000 411.000 83.438
784.000 411.000 87.032
785.000 411.000 87.934
786.000 411.000 87.729
787.000 411.000 87.375
788.000 411.000 87.111
789.000 411.000 87.108
790.000 411.000 87.590
791.000 411.000 88.335
792.000 411.000 88.504
793.000 411.000 88.233
794.000 411.000 88.263
795.000 411.000 88.516
796.000 411.000 88.811
797.000 411.000 88.736
798.000 411.000 88.686
799.000 411.000 89.041
800.000 411.000 89.518
801.000 411.000 89.496
802.000 411.000 89.275
803.000 411.000 89.305
804.000 411.000 88.842
805.000 411.000 87.995
806.000 411.000 87.732
807.000 411.000 88.076
808.000 411.000 88.590
809.000 411.000 88.674
810.000 411.000 88.729
811.000 411.000 88.978
812.000 411.000 89.030
813.000 411.000 88.556
814.000 411.000 88.213
815.000 411.000 88.391
816.000 411.000 88.839
817.000 411.000 89.163
818.000 411.000 89.496
819.000 411.000 89.573
820.000 411.000 89.005
821.000 411.000 88.564
822.000 411.000 88.712
823.000 411.000 88.856
824.000 411.000 88.665
825.000 411.000 88.686
826.000 411.000 89.062
827.000 411.000 89.227
828.000 411.000 89.174
829.000 411.000 89.113
830.000 411.000 88.661
831.000 411.000 87.989
832.000 411.000 87.582
833.000 411.000 87.526
834.000 411.000 87.892
835.000 411.000 88.518
836.000 411.000 88.712
837.000 411.000 88.536
838.000 411.000 88.609
839.000 411.000 88.518
840.000 411.000 88.074
841.000 411.000 88.213
842.000 411.000 88.706
843.000 411.000 88.763
844.000 411.000 88.742
845.000 411.000 88.836
846.000 411.000 88.706
847.000 411.000 88.380
848.000 411.000 88.018
849.000 411.000 88.160
850.000 411.000 88.778
851.000 411.000 89.443
852.000 411.000 89.814
853.000 411.000 89.936
854.000 411.000 90.024
855.000 411.000 89.671
856.000 411.000 88.716
857.000 411.000 88.300
858.000 411.000 88.785
859.000 411.000 89.259
860.000 411.000 89.067
861.000 411.000 88.593
862.000 411.000 88.665
863.000 411.000 88.826
864.000 411.000 88.673
865.000 411.000 88.301
866.000 411.000 88.299
867.000 411.000 88.673
868.000 411.000 88.978
869.000 411.000 89.084
870.000 411.000 88.916
871.000 411.000 88.841
872.000 411.000 88.988
873.000 411.000 88.882
874.000 411.000 88.838
875.000 411.000 89.018
876.000 411.000 89.479
877.000 411.000 89.540
878.000 411.000 89.303
879.000 411.000 89.309
880.000 411.000 89.365
881.000 411.000 89.314
882.000 411.000 89.235
883.000 411.000 89.159
884.000 411.000 89.461
885.000 411.000 89.606
886.000 411.000 89.247
887.000 411.000 89.046
888.000 411.000 88.846
889.000 411.000 88.772
890.000 411.000 88.912
891.000 411.000 89.179
892.000 411.000 89.304
893.000 411.000 88.999
894.000 411.000 88.636
895.000 411.000 88.724
896.000 411.000 88.877
897.000 411.000 88.916
898.000 411.000 89.005
899.000 411.000 89.129
900.000 411.000 89.001
901.000 411.000 88.711
902.000 411.000 89.014
903.000 411.000 89.474
904.000 411.000 89.414
905.000 411.000 88.942
906.000 411.000 88.745
907.000 411.000 89.020
908.000 411.000 89.298
909.000 411.000 89.420
910.000 411.000 89.073
911.000 411.000 88.620
912.000 411.000 88.572
913.000 411.000 88.653
914.000 411.000 88.540
915.000 411.000 88.799
916.000 411.000 89.045
917.000 411.000 89.255
918.000 411.000 89.780
919.000 411.000 90.140
920.000 411.000 89.999
921.000 411.000 89.700
922.000 411.000 89.555
923.000 411.000 89.815
924.000 411.000 90.016
925.000 411.000 89.778
926.000 411.000 89.193
927.000 411.000 88.791
928.000 411.000 89.062
929.000 411.000 89.159
930.000 411.000 88.774
931.000 411.000 88.334
932.000 411.000 88.366
933.000 411.000 88.563
934.000 411.000 88.676
935.000 411.000 88.902
936.000 411.000 88.932
937.000 411.000 89.035
938.000 411.000 89.426
939.000 411.000 89.400
940.000 411.000 89.345
941.000 411.000 89.502
942.000 411.000 89.716
943.000 411.000 89.625
944.000 411.000 89.233
945.000 411.000 89.051
946.000 411.000 88.878
947.000 411.000 88.568
948.000 411.000 88.464
949.000 411.000 88.463
950.000 411.000 88.372
951.000 411.000 88.966
952.000 411.000 89.695
953.000 411.000 89.729
954.000 411.000 89.327
955.000 411.000 89.085
956.000 411.000 89.095
957.000 411.000 89.137
958.000 411.000 88.756
959.000 411.000 88.283
960.000 411.000 88.271
961.000 411.000 88.406
962.000 411.000 88.228
963.000 411.000 88.539
964.000 411.000 89.408
965.000 411.000 89.533
966.000 411.000 88.992
967.000 411.000 88.276
968.000 411.000 88.081
969.000 411.000 88.518
970.000 411.000 88.955
971.000 411.000 89.153
972.000 411.000 89.425
973.000 411.000 89.267
974.000 411.000 88.593
975.000 411.000 88.104
976.000 411.000 88.225
977.000 411.000 88.652
978.000 411.000 88.563
979.000 411.000 88.479
980.000 411.000 89.047
981.000 411.000 89.935
982.000 411.000 90.259
983.000 411.000 89.726
984.000 411.000 89.056
985.000 411.000 88.750
986.000 411.000 88.537
987.000 411.000 88.370
988.000 411.000 88.463
989.000 411.000 88.849
990.000 411.000 88.900
991.000 411.000 88.648
992.000 411.000 88.962
993.000 411.000 89.543
994.000 411.000 89.764
995.000 411.000 89.786
996.000 411.000 89.831
997.000 411.000 89.732
998.000 411.000 89.483
999.000 411.000 88.798
1000.000 411.000 88.116
1001.000 411.000 88.037
1002.000 411.000 88.474
1003.000 411.000 89.142
1004.000 411.000 89.236
1005.000 411.000 89.169
1006.000 411.000 89.282
1007.000 411.000 89.435
1008.000 411.000 89.641
1009.000 411.000 89.455
1010.000 411.000 89.384
1011.000 411.000 89.409
1012.000 411.000 89.400
1013.000 411.000 89.569
1014.000 411.000 89.836
1015.000 411.000 89.478
1016.000 411.000 88.783
1017.000 411.000 88.630
1018.000 411.000 89.305
1019.000 411.000 90.156
1020.000 411.000 90.275
1021.000 411.000 89.674
1022.000 411.000 89.056
1023.000 411.000 88.977
1024.000 411.000 89.627
1025.000 411.000 89.807
1026.000 411.000 89.112
1027.000 411.000 88.683
1028.000 411.000 88.892
1029.000 411.000 89.322
1030.000 411.000 89.190
1031.000 411.000 89.052
1032.000 411.000 89.540
1033.000 411.000 89.917
1034.000 411.000 90.076
1035.000 411.000 90.052
1036.000 411.000 89.731
1037.000 411.000 89.200
1038.000 411.000 88.885
1039.000 411.000 88.560
1040.000 411.000 88.469
1041.000 411.000 88.584
1042.000 411.000 88.845
1043.000 411.000 88.988
1044.000 411.000 89.026
1045.000 411.000 89.004
1046.000 411.000 88.945
1047.000 411.000 89.224
1048.000 411.000 89.680
1049.000 411.000 89.838
1050.000 411.000 89.934
1051.000 411.000 89.728
1052.000 411.000 89.170
1053.000 411.000 88.690
1054.000 411.000 88.417
1055.000 411.000 88.592
1056.000 411.000 88.631
1057.000 411.000 88.670
1058.000 411.000 89.012
1059.000 411.000 89.301
1060.000 411.000 89.088
1061.000 411.000 88.639
1062.000 411.000 88.543
1063.000 411.000 88.661
1064.000 411.000 88.460
1065.000 411.000 87.996
1066.000 411.000 87.900
1067.000 411.000 88.385
1068.000 411.000 89.170
1069.000 411.000 89.343
1070.000 411.000 88.775
1071.000 411.000 88.242
1072.000 411.000 88.060
1073.000 411.000 88.375
1074.000 411.000 88.949
1075.000 411.000 89.411
1076.000 411.000 89.701
1077.000 411.000 89.758
1078.000 411.000 89.634
1079.000 411.000 89.548
1080.000 411.000 89.624
1081.000 411.000 89.733
1082.000 411.000 89.375
1083.000 411.000 88.663
1084.000 411.000 88.353
1085.000 411.000 88.441
1086.000 411.000 88.172
1087.000 411.000 88.029
1088.000 411.000 88.417
1089.000 411.000 89.048
1090.000 411.000 89.408
1091.000 411.000 89.662
1092.000 411.000 89.618
1093.000 411.000 89.122
1094.000 411.000 88.650
1095.000 411.000 88.891
1096.000 411.000 89.237
1097.000 411.000 89.275
1098.000 411.000 89.177
1099.000 411.000 89.019
1100.000 411.000 89.174
1101.000 411.000 89.417
1102.000 411.000 89.329
1103.000 411.000 89.166
1104.000 411.000 89.080
1105.000 411.000 88.788
1106.000 411.000 88.291
1107.000 411.000 88.004
1108.000 411.000 88.379
1109.000 411.000 88.833
1110.000 411.000 88.836
1111.000 411.000 88.908
1112.000 411.000 89.198
1113.000 411.000 89.377
1114.000 411.000 89.119
1115.000 411.000 88.998
1116.000 411.000 89.396
1117.000 411.000 89.564
1118.000 411.000 89.361
1119.000 411.000 89.483
1120.000 411.000 89.827
1121.000 411.000 89.931
1122.000 411.000 89.618
1123.000 411.000 88.996
1124.000 411.000 88.154
1125.000 411.000 88.285
1126.000 411.000 88.959
1127.000 411.000 88.437
1128.000 411.000 86.962
1129.000 411.000 86.293
1130.000 411.000 86.412
1131.000 411.000 86.398
1132.000 411.000 85.638
1133.000 411.000 83.140
1134.000 411.000 78.937
1135.000 411.000 75.868
1136.000 411.000 74.873
1137.000 411.000 74.894
1138.000 411.000 71.672
783.000 412.000 70.938
784.000 412.000 76.103
785.000 412.000 76.180
786.000 412.000 74.918
787.000 412.000 75.038
788.000 412.000 77.349
789.000 412.000 81.717
790.000 412.000 84.802
791.000 412.000 86.030
792.000 412.000 86.036
793.000 412.000 85.498
794.000 412.000 85.821
795.000 412.000 87.354
796.000 412.000 88.499
797.000 412.000 88.546
798.000 412.000 88.320
799.000 412.000 88.472
800.000 412.000 88.846
801.000 412.000 89.000
802.000 412.000 88.892
803.000 412.000 88.808
804.000 412.000 88.601
805.000 412.000 88.077
806.000 412.000 87.970
807.000 412.000 88.295
808.000 412.000 88.790
809.000 412.000 89.098
810.000 412.000 89.366
811.000 412.000 89.688
812.000 412.000 89.478
813.000 412.000 88.838
814.000 412.000 88.418
815.000 412.000 88.479
816.000 412.000 88.995
817.000 412.000 89.447
818.000 412.000 89.480
819.000 412.000 89.199
820.000 412.000 88.656
821.000 412.000 88.508
822.000 412.000 88.745
823.000 412.000 89.035
824.000 412.000 88.961
825.000 412.000 88.836
826.000 412.000 88.708
827.000 412.000 88.686
828.000 412.000 89.005
829.000 412.000 89.209
830.000 412.000 88.712
831.000 412.000 87.950
832.000 412.000 87.371
833.000 412.000 87.260
834.000 412.000 87.927
835.000 412.000 88.999
836.000 412.000 89.176
837.000 412.000 88.570
838.000 412.000 88.296
839.000 412.000 88.370
840.000 412.000 88.215
841.000 412.000 88.275
842.000 412.000 88.769
843.000 412.000 88.972
844.000 412.000 89.028
845.000 412.000 89.221
846.000 412.000 89.158
847.000 412.000 88.531
848.000 412.000 88.120
849.000 412.000 88.491
850.000 412.000 89.066
851.000 412.000 89.318
852.000 412.000 89.304
853.000 412.000 89.406
854.000 412.000 89.583
855.000 412.000 89.315
856.000 412.000 88.566
857.000 412.000 88.252
858.000 412.000 88.596
859.000 412.000 89.135
860.000 412.000 89.221
861.000 412.000 88.976
862.000 412.000 89.194
863.000 412.000 89.127
864.000 412.000 88.645
865.000 412.000 88.214
866.000 412.000 88.219
867.000 412.000 88.399
868.000 412.000 88.674
869.000 412.000 88.755
870.000 412.000 88.642
871.000 412.000 88.517
872.000 412.000 88.528
873.000 412.000 88.719
874.000 412.000 89.223
875.000 412.000 89.791
876.000 412.000 90.184
877.000 412.000 89.930
878.000 412.000 89.483
879.000 412.000 89.466
880.000 412.000 89.771
881.000 412.000 89.884
882.000 412.000 89.558
883.000 412.000 89.098
884.000 412.000 89.199
885.000 412.000 89.614
886.000 412.000 89.360
887.000 412.000 88.715
888.000 412.000 88.114
889.000 412.000 88.096
890.000 412.000 88.755
891.000 412.000 89.679
892.000 412.000 90.153
893.000 412.000 89.758
894.000 412.000 89.157
895.000 412.000 89.266
896.000 412.000 89.383
897.000 412.000 89.110
898.000 412.000 88.991
899.000 412.000 88.908
900.000 412.000 88.768
901.000 412.000 88.609
902.000 412.000 88.799
903.000 412.000 89.069
904.000 412.000 89.091
905.000 412.000 88.833
906.000 412.000 88.864
907.000 412.000 89.188
908.000 412.000 89.268
909.000 412.000 89.234
910.000 412.000 89.139
911.000 412.000 89.027
912.000 412.000 88.906
913.000 412.000 88.802
914.000 412.000 88.618
915.000 412.000 88.788
916.000 412.000 89.025
917.000 412.000 89.099
918.000 412.000 89.220
919.000 412.000 89.324
920.000 412.000 89.397
921.000 412.000 89.430
922.000 412.000 89.073
923.000 412.000 88.926
924.000 412.000 88.961
925.000 412.000 88.743
926.000 412.000 88.350
927.000 412.000 88.332
928.000 412.000 88.966
929.000 412.000 89.416
930.000 412.000 89.337
931.000 412.000 89.004
932.000 412.000 88.933
933.000 412.000 88.806
934.000 412.000 88.577
935.000 412.000 88.711
936.000 412.000 88.812
937.000 412.000 88.987
938.000 412.000 89.616
939.000 412.000 89.699
940.000 412.000 89.451
941.000 412.000 89.534
942.000 412.000 89.537
943.000 412.000 88.921
944.000 412.000 88.392
945.000 412.000 88.524
946.000 412.000 88.669
947.000 412.000 88.625
948.000 412.000 88.501
949.000 412.000 88.276
950.000 412.000 88.255
951.000 412.000 89.076
952.000 412.000 89.967
953.000 412.000 89.885
954.000 412.000 89.304
955.000 412.000 89.093
956.000 412.000 88.969
957.000 412.000 88.938
958.000 412.000 88.936
959.000 412.000 88.792
960.000 412.000 88.820
961.000 412.000 88.648
962.000 412.000 88.197
963.000 412.000 88.542
964.000 412.000 89.632
965.000 412.000 89.806
966.000 412.000 88.930
967.000 412.000 88.317
968.000 412.000 88.506
969.000 412.000 88.835
970.000 412.000 89.115
971.000 412.000 89.386
972.000 412.000 89.522
973.000 412.000 89.195
974.000 412.000 88.847
975.000 412.000 88.793
976.000 412.000 88.954
977.000 412.000 89.023
978.000 412.000 88.451
979.000 412.000 87.995
980.000 412.000 88.379
981.000 412.000 89.393
982.000 412.000 90.064
983.000 412.000 89.920
984.000 412.000 89.630
985.000 412.000 89.226
986.000 412.000 88.757
987.000 412.000 88.703
988.000 412.000 88.909
989.000 412.000 89.022
990.000 412.000 88.940
991.000 412.000 88.642
992.000 412.000 88.916
993.000 412.000 89.717
994.000 412.000 90.185
995.000 412.000 90.135
996.000 412.000 90.131
997.000 412.000 90.235
998.000 412.000 89.930
999.000 412.000 88.956
1000.000 412.000 88.077
1001.000 412.000 87.931
1002.000 412.000 88.516
1003.000 412.000 89.413
1004.000 412.000 89.613
1005.000 412.000 89.263
1006.000 412.000 89.088
1007.000 412.000 89.246
1008.000 412.000 89.695
1009.000 412.000 89.662
1010.000 412.000 89.434
1011.000 412.000 89.180
1012.000 412.000 88.940
1013.000 412.000 89.101
1014.000 412.000 89.482
1015.000 412.000 89.187
1016.000 412.000 88.608
1017.000 412.000 88.559
1018.000 412.000 89.413
1019.000 412.000 90.208
1020.000 412.000 90.267
1021.000 412.000 89.712
1022.000 412.000 88.825
1023.000 412.000 88.515
1024.000 412.000 89.098
1025.000 412.000 89.431
1026.000 412.000 89.140
1027.000 412.000 88.952
1028.000 412.000 89.153
1029.000 412.000 89.436
1030.000 412.000 89.202
1031.000 412.000 89.020
1032.000 412.000 89.577
1033.000 412.000 89.854
1034.000 412.000 89.630
1035.000 412.000 89.365
1036.000 412.000 89.290
1037.000 412.000 89.095
1038.000 412.000 88.740
1039.000 412.000 88.284
1040.000 412.000 88.043
1041.000 412.000 87.896
1042.000 412.000 88.048
1043.000 412.000 88.560
1044.000 412.000 88.898
1045.000 412.000 88.698
1046.000 412.000 88.444
1047.000 412.000 88.967
1048.000 412.000 89.836
1049.000 412.000 90.258
1050.000 412.000 90.174
1051.000 412.000 89.579
1052.000 412.000 88.851
1053.000 412.000 88.549
1054.000 412.000 88.466
1055.000 412.000 88.571
1056.000 412.000 88.453
1057.000 412.000 88.466
1058.000 412.000 88.678
1059.000 412.000 88.784
1060.000 412.000 88.654
1061.000 412.000 88.668
1062.000 412.000 88.993
1063.000 412.000 88.953
1064.000 412.000 88.526
1065.000 412.000 88.226
1066.000 412.000 88.264
1067.000 412.000 88.588
1068.000 412.000 89.041
1069.000 412.000 89.197
1070.000 412.000 88.796
1071.000 412.000 88.298
1072.000 412.000 87.969
1073.000 412.000 88.286
1074.000 412.000 88.883
1075.000 412.000 89.190
1076.000 412.000 89.435
1077.000 412.000 89.519
1078.000 412.000 89.418
1079.000 412.000 89.246
1080.000 412.000 89.221
1081.000 412.000 89.450
1082.000 412.000 89.426
1083.000 412.000 88.810
1084.000 412.000 88.390
1085.000 412.000 88.315
1086.000 412.000 88.133
1087.000 412.000 88.176
1088.000 412.000 88.619
1089.000 412.000 89.202
1090.000 412.000 89.355
1091.000 412.000 89.267
1092.000 412.000 89.052
1093.000 412.000 88.628
1094.000 412.000 88.562
1095.000 412.000 89.130
1096.000 412.000 89.325
1097.000 412.000 89.329
1098.000 412.000 89.279
1099.000 412.000 88.914
1100.000 412.000 88.993
1101.000 412.000 89.360
1102.000 412.000 89.251
1103.000 412.000 88.957
1104.000 412.000 88.926
1105.000 412.000 88.969
1106.000 412.000 88.780
1107.000 412.000 88.586
1108.000 412.000 88.905
1109.000 412.000 89.022
1110.000 412.000 88.681
1111.000 412.000 88.738
1112.000 412.000 89.333
1113.000 412.000 89.768
1114.000 412.000 89.459
1115.000 412.000 89.335
1116.000 412.000 89.579
1117.000 412.000 89.507
1118.000 412.000 89.314
1119.000 412.000 89.602
1120.000 412.000 89.803
1121.000 412.000 89.070
1122.000 412.000 87.670
1123.000 412.000 86.643
1124.000 412.000 85.967
1125.000 412.000 86.080
1126.000 412.000 86.105
1127.000 412.000 83.744
1128.000 412.000 79.350
1129.000 412.000 77.034
1130.000 412.000 76.434
1131.000 412.000 75.631
1132.000 412.000 74.001
1133.000 412.000 69.669
789.000 413.000 68.507
790.000 413.000 73.588
791.000 413.000 75.029
792.000 413.000 74.996
793.000 413.000 74.206
794.000 413.000 76.286
795.000 413.000 81.644
796.000 413.000 85.453
797.000 413.000 86.471
798.000 413.000 86.261
799.000 413.000 85.942
800.000 413.000 85.852
801.000 413.000 86.453
802.000 413.000 87.608
803.000 413.000 88.341
804.000 413.000 88.565
805.000 413.000 88.144
806.000 413.000 88.096
807.000 413.000 88.426
808.000 413.000 88.746
809.000 413.000 89.200
810.000 413.000 89.597
811.000 413.000 89.844
812.000 413.000 89.270
813.000 413.000 88.580
814.000 413.000 88.509
815.000 413.000 88.882
816.000 413.000 89.267
817.000 413.000 89.504
818.000 413.000 89.513
819.000 413.000 89.165
820.000 413.000 88.763
821.000 413.000 88.810
822.000 413.000 89.047
823.000 413.000 89.382
824.000 413.000 89.281
825.000 413.000 88.799
826.000 413.000 88.219
827.000 413.000 88.082
828.000 413.000 88.630
829.000 413.000 89.189
830.000 413.000 89.172
831.000 413.000 88.772
832.000 413.000 88.305
833.000 413.000 88.134
834.000 413.000 88.606
835.000 413.000 89.451
836.000 413.000 89.554
837.000 413.000 88.790
838.000 413.000 88.155
839.000 413.000 88.251
840.000 413.000 88.529
841.000 413.000 88.486
842.000 413.000 88.645
843.000 413.000 88.960
844.000 413.000 89.250
845.000 413.000 89.388
846.000 413.000 89.071
847.000 413.000 88.348
848.000 413.000 88.288
849.000 413.000 88.963
850.000 413.000 89.433
851.000 413.000 89.528
852.000 413.000 89.381
853.000 413.000 89.257
854.000 413.000 89.297
855.000 413.000 89.198
856.000 413.000 89.017
857.000 413.000 89.001
858.000 413.000 88.950
859.000 413.000 88.971
860.000 413.000 89.101
861.000 413.000 89.231
862.000 413.000 89.561
863.000 413.000 89.450
864.000 413.000 88.986
865.000 413.000 88.679
866.000 413.000 88.755
867.000 413.000 88.772
868.000 413.000 88.947
869.000 413.000 89.090
870.000 413.000 88.881
871.000 413.000 88.600
872.000 413.000 88.577
873.000 413.000 88.921
874.000 413.000 89.500
875.000 413.000 89.981
876.000 413.000 90.130
877.000 413.000 89.721
878.000 413.000 89.141
879.000 413.000 88.775
880.000 413.000 89.161
881.000 413.000 89.736
882.000 413.000 89.726
883.000 413.000 89.201
884.000 413.000 89.090
885.000 413.000 89.655
886.000 413.000 89.578
887.000 413.000 88.726
888.000 413.000 87.956
889.000 413.000 88.072
890.000 413.000 88.873
891.000 413.000 89.763
892.000 413.000 90.280
893.000 413.000 89.989
894.000 413.000 89.393
895.000 413.000 89.380
896.000 413.000 89.544
897.000 413.000 89.185
898.000 413.000 88.865
899.000 413.000 88.725
900.000 413.000 88.773
901.000 413.000 88.920
902.000 413.000 89.017
903.000 413.000 88.950
904.000 413.000 88.966
905.000 413.000 88.867
906.000 413.000 88.964
907.000 413.000 89.276
908.000 413.000 89.305
909.000 413.000 89.467
910.000 413.000 89.643
911.000 413.000 89.593
912.000 413.000 89.327
913.000 413.000 88.837
914.000 413.000 88.366
915.000 413.000 88.489
916.000 413.000 89.117
917.000 413.000 89.569
918.000 413.000 89.377
919.000 413.000 88.891
920.000 413.000 88.905
921.000 413.000 89.137
922.000 413.000 89.037
923.000 413.000 88.892
924.000 413.000 88.567
925.000 413.000 88.069
926.000 413.000 87.821
927.000 413.000 87.971
928.000 413.000 88.473
929.000 413.000 89.063
930.000 413.000 89.478
931.000 413.000 89.566
932.000 413.000 89.505
933.000 413.000 89.376
934.000 413.000 89.120
935.000 413.000 88.960
936.000 413.000 88.740
937.000 413.000 88.642
938.000 413.000 89.254
939.000 413.000 89.514
940.000 413.000 89.266
941.000 413.000 89.385
942.000 413.000 89.324
943.000 413.000 88.425
944.000 413.000 87.926
945.000 413.000 88.281
946.000 413.000 88.572
947.000 413.000 88.606
948.000 413.000 88.380
949.000 413.000 88.157
950.000 413.000 88.342
951.000 413.000 89.132
952.000 413.000 89.840
953.000 413.000 89.612
954.000 413.000 89.142
955.000 413.000 89.086
956.000 413.000 88.803
957.000 413.000 88.609
958.000 413.000 88.688
959.000 413.000 88.713
960.000 413.000 89.106
961.000 413.000 89.232
962.000 413.000 88.814
963.000 413.000 88.884
964.000 413.000 89.645
965.000 413.000 89.741
966.000 413.000 88.877
967.000 413.000 88.506
968.000 413.000 88.878
969.000 413.000 88.948
970.000 413.000 88.839
971.000 413.000 88.999
972.000 413.000 89.057
973.000 413.000 88.775
974.000 413.000 89.030
975.000 413.000 89.668
976.000 413.000 89.868
977.000 413.000 89.437
978.000 413.000 88.464
979.000 413.000 88.019
980.000 413.000 88.416
981.000 413.000 89.183
982.000 413.000 89.602
983.000 413.000 89.579
984.000 413.000 89.662
985.000 413.000 89.446
986.000 413.000 89.070
987.000 413.000 89.039
988.000 413.000 89.136
989.000 413.000 89.032
990.000 413.000 88.930
991.000 413.000 88.764
992.000 413.000 88.906
993.000 413.000 89.450
994.000 413.000 89.902
995.000 413.000 89.915
996.000 413.000 89.892
997.000 413.000 89.826
998.000 413.000 89.531
999.000 413.000 88.920
1000.000 413.000 88.439
1001.000 413.000 88.526
1002.000 413.000 89.147
1003.000 413.000 89.746
1004.000 413.000 89.777
1005.000 413.000 89.368
1006.000 413.000 89.091
1007.000 413.000 89.203
1008.000 413.000 89.522
1009.000 413.000 89.680
1010.000 413.000 89.671
1011.000 413.000 89.349
1012.000 413.000 88.813
1013.000 413.000 88.696
1014.000 413.000 89.102
1015.000 413.000 89.096
1016.000 413.000 88.654
1017.000 413.000 88.621
1018.000 413.000 89.489
1019.000 413.000 90.079
1020.000 413.000 90.043
1021.000 413.000 89.735
1022.000 413.000 89.058
1023.000 413.000 88.552
1024.000 413.000 88.638
1025.000 413.000 88.828
1026.000 413.000 88.735
1027.000 413.000 88.832
1028.000 413.000 89.232
1029.000 413.000 89.497
1030.000 413.000 89.230
1031.000 413.000 88.965
1032.000 413.000 89.339
1033.000 413.000 89.492
1034.000 413.000 88.998
1035.000 413.000 88.489
1036.000 413.000 88.585
1037.000 413.000 88.918
1038.000 413.000 88.754
1039.000 413.000 88.380
1040.000 413.000 88.082
1041.000 413.000 87.887
1042.000 413.000 88.016
1043.000 413.000 88.577
1044.000 413.000 88.815
1045.000 413.000 88.401
1046.000 413.000 88.161
1047.000 413.000 88.745
1048.000 413.000 89.625
1049.000 413.000 90.182
1050.000 413.000 90.125
1051.000 413.000 89.549
1052.000 413.000 88.990
1053.000 413.000 88.835
1054.000 413.000 88.598
1055.000 413.000 88.778
1056.000 413.000 89.047
1057.000 413.000 89.151
1058.000 413.000 88.950
1059.000 413.000 88.576
1060.000 413.000 88.531
1061.000 413.000 88.866
1062.000 413.000 89.311
1063.000 413.000 89.087
1064.000 413.000 88.719
1065.000 413.000 88.741
1066.000 413.000 88.704
1067.000 413.000 88.658
1068.000 413.000 88.865
1069.000 413.000 89.295
1070.000 413.000 89.276
1071.000 413.000 88.844
1072.000 413.000 88.438
1073.000 413.000 88.666
1074.000 413.000 89.127
1075.000 413.000 89.131
1076.000 413.000 89.016
1077.000 413.000 89.063
1078.000 413.000 89.138
1079.000 413.000 89.033
1080.000 413.000 89.027
1081.000 413.000 89.280
1082.000 413.000 89.354
1083.000 413.000 88.914
1084.000 413.000 88.470
1085.000 413.000 88.287
1086.000 413.000 88.386
1087.000 413.000 88.548
1088.000 413.000 88.641
1089.000 413.000 88.879
1090.000 413.000 88.873
1091.000 413.000 88.712
1092.000 413.000 88.574
1093.000 413.000 88.468
1094.000 413.000 88.812
1095.000 413.000 89.337
1096.000 413.000 89.079
1097.000 413.000 88.793
1098.000 413.000 88.873
1099.000 413.000 88.790
1100.000 413.000 89.046
1101.000 413.000 89.542
1102.000 413.000 89.513
1103.000 413.000 89.230
1104.000 413.000 89.124
1105.000 413.000 89.193
1106.000 413.000 89.091
1107.000 413.000 88.884
1108.000 413.000 89.104
1109.000 413.000 89.109
1110.000 413.000 88.743
1111.000 413.000 88.766
1112.000 413.000 89.214
1113.000 413.000 89.592
1114.000 413.000 89.005
1115.000 413.000 87.950
1116.000 413.000 87.496
1117.000 413.000 87.267
1118.000 413.000 87.117
1119.000 413.000 87.426
1120.000 413.000 87.039
1121.000 413.000 84.199
1122.000 413.000 79.719
1123.000 413.000 77.181
1124.000 413.000 75.898
1125.000 413.000 74.944
1126.000 413.000 73.924
1127.000 413.000 70.975
795.000 414.000 68.359
796.000 414.000 74.625
797.000 414.000 76.737
798.000 414.000 76.319
799.000 414.000 75.589
800.000 414.000 75.396
801.000 414.000 77.348
802.000 414.000 82.070
803.000 414.000 85.425
804.000 414.000 86.406
805.000 414.000 85.904
806.000 414.000 85.842
807.000 414.000 86.810
808.000 414.000 88.023
809.000 414.000 89.051
810.000 414.000 89.586
811.000 414.000 89.779
812.000 414.000 89.091
813.000 414.000 88.320
814.000 414.000 88.302
815.000 414.000 88.774
816.000 414.000 88.798
817.000 414.000 88.870
818.000 414.000 89.428
819.000 414.000 89.661
820.000 414.000 89.471
821.000 414.000 89.437
822.000 414.000 89.556
823.000 414.000 89.702
824.000 414.000 89.575
825.000 414.000 88.902
826.000 414.000 87.971
827.000 414.000 87.785
828.000 414.000 88.453
829.000 414.000 89.094
830.000 414.000 89.402
831.000 414.000 89.519
832.000 414.000 89.510
833.000 414.000 89.386
834.000 414.000 89.438
835.000 414.000 89.745
836.000 414.000 89.923
837.000 414.000 89.447
838.000 414.000 88.598
839.000 414.000 88.405
840.000 414.000 88.684
841.000 414.000 88.703
842.000 414.000 88.880
843.000 414.000 89.217
844.000 414.000 89.174
845.000 414.000 88.860
846.000 414.000 88.531
847.000 414.000 88.252
848.000 414.000 88.538
849.000 414.000 89.245
850.000 414.000 89.623
851.000 414.000 89.834
852.000 414.000 89.796
853.000 414.000 89.420
854.000 414.000 89.076
855.000 414.000 88.862
856.000 414.000 89.088
857.000 414.000 89.570
858.000 414.000 89.616
859.000 414.000 89.228
860.000 414.000 89.163
861.000 414.000 89.519
862.000 414.000 89.781
863.000 414.000 89.574
864.000 414.000 89.120
865.000 414.000 88.861
866.000 414.000 89.086
867.000 414.000 89.304
868.000 414.000 89.480
869.000 414.000 89.595
870.000 414.000 89.174
871.000 414.000 88.757
872.000 414.000 88.558
873.000 414.000 88.683
874.000 414.000 89.258
875.000 414.000 89.823
876.000 414.000 90.015
877.000 414.000 89.640
878.000 414.000 88.959
879.000 414.000 88.280
880.000 414.000 88.427
881.000 414.000 89.067
882.000 414.000 89.378
883.000 414.000 89.091
884.000 414.000 88.927
885.000 414.000 89.273
886.000 414.000 89.308
887.000 414.000 88.825
888.000 414.000 88.350
889.000 414.000 88.586
890.000 414.000 89.105
891.000 414.000 89.534
892.000 414.000 89.829
893.000 414.000 89.628
894.000 414.000 89.272
895.000 414.000 89.310
896.000 414.000 89.440
897.000 414.000 89.036
898.000 414.000 88.620
899.000 414.000 88.531
900.000 414.000 88.788
901.000 414.000 89.297
902.000 414.000 89.597
903.000 414.000 89.471
904.000 414.000 89.381
905.000 414.000 89.272
906.000 414.000 89.194
907.000 414.000 89.164
908.000 414.000 89.025
909.000 414.000 89.297
910.000 414.000 89.534
911.000 414.000 89.416
912.000 414.000 89.335
913.000 414.000 89.022
914.000 414.000 88.417
915.000 414.000 88.228
916.000 414.000 88.909
917.000 414.000 89.774
918.000 414.000 89.815
919.000 414.000 89.257
920.000 414.000 89.061
921.000 414.000 89.201
922.000 414.000 89.473
923.000 414.000 89.458
924.000 414.000 88.856
925.000 414.000 88.274
926.000 414.000 88.162
927.000 414.000 88.140
928.000 414.000 88.092
929.000 414.000 88.434
930.000 414.000 89.096
931.000 414.000 89.457
932.000 414.000 89.405
933.000 414.000 89.339
934.000 414.000 89.208
935.000 414.000 89.001
936.000 414.000 88.656
937.000 414.000 88.378
938.000 414.000 88.776
939.000 414.000 88.987
940.000 414.000 88.842
941.000 414.000 89.135
942.000 414.000 89.263
943.000 414.000 88.552
944.000 414.000 88.017
945.000 414.000 88.173
946.000 414.000 88.436
947.000 414.000 88.591
948.000 414.000 88.576
949.000 414.000 88.619
950.000 414.000 88.829
951.000 414.000 89.202
952.000 414.000 89.418
953.000 414.000 89.173
954.000 414.000 89.045
955.000 414.000 88.969
956.000 414.000 88.455
957.000 414.000 88.236
958.000 414.000 88.392
959.000 414.000 88.531
960.000 414.000 89.228
961.000 414.000 89.869
962.000 414.000 89.596
963.000 414.000 89.032
964.000 414.000 89.202
965.000 414.000 89.504
966.000 414.000 89.298
967.000 414.000 89.195
968.000 414.000 89.210
969.000 414.000 88.832
970.000 414.000 88.439
971.000 414.000 88.456
972.000 414.000 88.492
973.000 414.000 88.475
974.000 414.000 89.217
975.000 414.000 90.156
976.000 414.000 90.291
977.000 414.000 89.610
978.000 414.000 88.589
979.000 414.000 88.331
980.000 414.000 88.736
981.000 414.000 89.149
982.000 414.000 89.310
983.000 414.000 89.398
984.000 414.000 89.506
985.000 414.000 89.301
986.000 414.000 89.121
987.000 414.000 89.132
988.000 414.000 89.073
989.000 414.000 88.920
990.000 414.000 89.050
991.000 414.000 89.039
992.000 414.000 89.025
993.000 414.000 89.081
994.000 414.000 89.223
995.000 414.000 89.352
996.000 414.000 89.473
997.000 414.000 89.155
998.000 414.000 88.808
999.000 414.000 88.674
