ply
format ascii 1.0
element vertex 2082
property float x
property float y
property float z
end_header
554.000 369.000 89.314
555.000 369.000 89.193
556.000 369.000 88.729
557.000 369.000 88.047
558.000 369.000 88.146
559.000 369.000 88.943
560.000 369.000 89.314
561.000 369.000 89.205
562.000 369.000 89.357
563.000 369.000 89.613
564.000 369.000 89.541
565.000 369.000 89.186
566.000 369.000 86.290
567.000 369.000 75.376
285.000 370.000 76.782
286.000 370.000 87.106
287.000 370.000 89.235
288.000 370.000 89.303
289.000 370.000 89.482
290.000 370.000 89.662
291.000 370.000 89.920
292.000 370.000 89.909
293.000 370.000 89.793
294.000 370.000 89.952
295.000 370.000 89.968
296.000 370.000 90.119
297.000 370.000 90.567
298.000 370.000 90.422
299.000 370.000 89.636
300.000 370.000 88.826
301.000 370.000 88.321
302.000 370.000 88.554
303.000 370.000 89.183
304.000 370.000 89.220
305.000 370.000 88.660
306.000 370.000 88.816
307.000 370.000 89.580
308.000 370.000 89.670
309.000 370.000 89.000
310.000 370.000 88.666
311.000 370.000 88.752
312.000 370.000 88.727
313.000 370.000 88.855
314.000 370.000 88.889
315.000 370.000 88.751
316.000 370.000 88.941
317.000 370.000 89.001
318.000 370.000 88.634
319.000 370.000 88.470
320.000 370.000 88.873
321.000 370.000 89.397
322.000 370.000 89.397
323.000 370.000 88.825
324.000 370.000 88.471
325.000 370.000 88.486
326.000 370.000 88.604
327.000 370.000 88.712
328.000 370.000 88.939
329.000 370.000 89.392
330.000 370.000 89.407
331.000 370.000 88.757
332.000 370.000 88.370
333.000 370.000 88.201
334.000 370.000 88.312
335.000 370.000 88.285
336.000 370.000 87.999
337.000 370.000 88.371
338.000 370.000 89.272
339.000 370.000 89.694
340.000 370.000 89.811
341.000 370.000 89.662
342.000 370.000 89.413
343.000 370.000 88.923
344.000 370.000 88.217
345.000 370.000 88.049
346.000 370.000 88.675
347.000 370.000 89.398
348.000 370.000 89.388
349.000 370.000 88.653
350.000 370.000 88.436
351.000 370.000 88.871
352.000 370.000 89.534
353.000 370.000 89.663
354.000 370.000 89.309
355.000 370.000 89.227
356.000 370.000 89.263
357.000 370.000 89.102
358.000 370.000 88.698
359.000 370.000 88.604
360.000 370.000 88.375
361.000 370.000 88.166
362.000 370.000 88.468
363.000 370.000 88.927
364.000 370.000 89.052
365.000 370.000 88.602
366.000 370.000 88.236
367.000 370.000 88.170
368.000 370.000 88.624
369.000 370.000 89.325
370.000 370.000 89.664
371.000 370.000 89.129
372.000 370.000 88.457
373.000 370.000 88.735
374.000 370.000 89.498
375.000 370.000 89.676
376.000 370.000 89.295
377.000 370.000 88.695
378.000 370.000 88.469
379.000 370.000 88.866
380.000 370.000 89.451
381.000 370.000 89.143
382.000 370.000 88.280
383.000 370.000 87.925
384.000 370.000 87.969
385.000 370.000 88.040
386.000 370.000 88.574
387.000 370.000 89.217
388.000 370.000 89.322
389.000 370.000 88.778
390.000 370.000 88.274
391.000 370.000 88.517
392.000 370.000 89.335
393.000 370.000 89.791
394.000 370.000 89.705
395.000 370.000 89.644
396.000 370.000 89.662
397.000 370.000 89.276
398.000 370.000 89.295
399.000 370.000 89.706
400.000 370.000 89.644
401.000 370.000 89.116
402.000 370.000 88.712
403.000 370.000 88.584
404.000 370.000 88.603
405.000 370.000 88.815
406.000 370.000 89.165
407.000 370.000 89.148
408.000 370.000 88.525
409.000 370.000 88.337
410.000 370.000 88.741
411.000 370.000 89.137
412.000 370.000 89.290
413.000 370.000 89.238
414.000 370.000 89.253
415.000 370.000 89.052
416.000 370.000 88.832
417.000 370.000 89.074
418.000 370.000 89.444
419.000 370.000 89.400
420.000 370.000 89.342
421.000 370.000 89.272
422.000 370.000 89.123
423.000 370.000 88.814
424.000 370.000 88.325
425.000 370.000 87.902
426.000 370.000 87.860
427.000 370.000 88.273
428.000 370.000 88.699
429.000 370.000 88.935
430.000 370.000 89.189
431.000 370.000 89.599
432.000 370.000 89.913
433.000 370.000 89.584
434.000 370.000 89.085
435.000 370.000 88.999
436.000 370.000 89.244
437.000 370.000 89.361
438.000 370.000 89.237
439.000 370.000 88.858
440.000 370.000 88.606
441.000 370.000 88.933
442.000 370.000 89.482
443.000 370.000 89.485
444.000 370.000 88.950
445.000 370.000 88.775
446.000 370.000 89.154
447.000 370.000 89.630
448.000 370.000 89.610
449.000 370.000 88.864
450.000 370.000 88.080
451.000 370.000 88.104
452.000 370.000 88.610
453.000 370.000 89.230
454.000 370.000 89.131
455.000 370.000 88.408
456.000 370.000 88.234
457.000 370.000 88.368
458.000 370.000 88.493
459.000 370.000 88.912
460.000 370.000 89.093
461.000 370.000 89.046
462.000 370.000 89.031
463.000 370.000 88.899
464.000 370.000 89.202
465.000 370.000 89.656
466.000 370.000 89.659
467.000 370.000 89.301
468.000 370.000 88.913
469.000 370.000 89.060
470.000 370.000 89.337
471.000 370.000 89.331
472.000 370.000 89.036
473.000 370.000 88.679
474.000 370.000 88.519
475.000 370.000 88.502
476.000 370.000 88.655
477.000 370.000 88.851
478.000 370.000 88.910
479.000 370.000 88.910
480.000 370.000 89.276
481.000 370.000 89.389
482.000 370.000 88.736
483.000 370.000 88.357
484.000 370.000 88.688
485.000 370.000 89.164
486.000 370.000 88.975
487.000 370.000 88.656
488.000 370.000 88.813
489.000 370.000 88.923
490.000 370.000 88.682
491.000 370.000 88.347
492.000 370.000 88.304
493.000 370.000 88.539
494.000 370.000 88.746
495.000 370.000 88.877
496.000 370.000 88.879
497.000 370.000 88.863
498.000 370.000 88.938
499.000 370.000 89.089
500.000 370.000 89.008
501.000 370.000 88.907
502.000 370.000 88.790
503.000 370.000 88.681
504.000 370.000 88.742
505.000 370.000 89.183
506.000 370.000 89.545
507.000 370.000 89.489
508.000 370.000 89.407
509.000 370.000 89.402
510.000 370.000 89.368
511.000 370.000 89.352
512.000 370.000 89.300
513.000 370.000 89.068
514.000 370.000 89.489
515.000 370.000 90.335
516.000 370.000 90.374
517.000 370.000 89.535
518.000 370.000 88.829
519.000 370.000 88.675
520.000 370.000 88.765
521.000 370.000 88.787
522.000 370.000 88.551
523.000 370.000 88.483
524.000 370.000 88.578
525.000 370.000 88.627
526.000 370.000 88.490
527.000 370.000 88.728
528.000 370.000 88.974
529.000 370.000 89.049
530.000 370.000 89.497
531.000 370.000 89.876
532.000 370.000 89.537
533.000 370.000 88.948
534.000 370.000 88.212
535.000 370.000 87.993
536.000 370.000 88.431
537.000 370.000 88.936
538.000 370.000 89.379
539.000 370.000 89.550
540.000 370.000 89.575
541.000 370.000 89.253
542.000 370.000 88.717
543.000 370.000 88.696
544.000 370.000 89.124
545.000 370.000 89.352
546.000 370.000 89.035
547.000 370.000 88.801
548.000 370.000 88.962
549.000 370.000 88.980
550.000 370.000 89.116
551.000 370.000 89.219
552.000 370.000 89.125
553.000 370.000 89.153
554.000 370.000 89.404
555.000 370.000 89.534
556.000 370.000 89.200
557.000 370.000 88.507
558.000 370.000 88.390
559.000 370.000 88.788
560.000 370.000 88.919
561.000 370.000 88.917
562.000 370.000 89.001
563.000 370.000 89.107
564.000 370.000 89.162
565.000 370.000 89.351
566.000 370.000 87.173
567.000 370.000 77.017
285.000 371.000 75.451
286.000 371.000 87.105
287.000 371.000 89.100
288.000 371.000 88.969
289.000 371.000 89.360
290.000 371.000 89.588
291.000 371.000 89.624
292.000 371.000 89.364
293.000 371.000 89.199
294.000 371.000 89.507
295.000 371.000 89.627
296.000 371.000 89.914
297.000 371.000 90.446
298.000 371.000 90.287
299.000 371.000 89.711
300.000 371.000 89.255
301.000 371.000 88.716
302.000 371.000 88.758
303.000 371.000 89.261
304.000 371.000 89.220
305.000 371.000 88.652
306.000 371.000 88.637
307.000 371.000 89.137
308.000 371.000 89.207
309.000 371.000 88.668
310.000 371.000 88.467
311.000 371.000 88.679
312.000 371.000 88.687
313.000 371.000 89.013
314.000 371.000 89.252
315.000 371.000 89.097
316.000 371.000 89.021
317.000 371.000 89.046
318.000 371.000 89.018
319.000 371.000 88.904
320.000 371.000 89.060
321.000 371.000 89.296
322.000 371.000 89.394
323.000 371.000 89.142
324.000 371.000 88.891
325.000 371.000 88.860
326.000 371.000 88.832
327.000 371.000 88.824
328.000 371.000 88.659
329.000 371.000 88.715
330.000 371.000 88.585
331.000 371.000 88.032
332.000 371.000 87.860
333.000 371.000 88.018
334.000 371.000 88.309
335.000 371.000 88.162
336.000 371.000 87.879
337.000 371.000 88.234
338.000 371.000 89.133
339.000 371.000 89.721
340.000 371.000 89.845
341.000 371.000 89.584
342.000 371.000 89.467
343.000 371.000 89.162
344.000 371.000 88.467
345.000 371.000 88.371
346.000 371.000 89.169
347.000 371.000 89.669
348.000 371.000 89.411
349.000 371.000 88.825
350.000 371.000 88.810
351.000 371.000 89.135
352.000 371.000 89.495
353.000 371.000 89.344
354.000 371.000 88.824
355.000 371.000 88.691
356.000 371.000 89.021
357.000 371.000 89.203
358.000 371.000 88.621
359.000 371.000 88.078
360.000 371.000 87.757
361.000 371.000 87.715
362.000 371.000 88.058
363.000 371.000 88.726
364.000 371.000 89.250
365.000 371.000 88.899
366.000 371.000 88.315
367.000 371.000 87.888
368.000 371.000 87.896
369.000 371.000 88.300
370.000 371.000 88.754
371.000 371.000 88.748
372.000 371.000 88.591
373.000 371.000 88.823
374.000 371.000 89.331
375.000 371.000 89.432
376.000 371.000 89.234
377.000 371.000 88.930
378.000 371.000 88.825
379.000 371.000 89.132
380.000 371.000 89.807
381.000 371.000 89.771
382.000 371.000 88.974
383.000 371.000 88.542
384.000 371.000 88.592
385.000 371.000 88.561
386.000 371.000 88.859
387.000 371.000 89.324
388.000 371.000 89.379
389.000 371.000 88.773
390.000 371.000 88.048
391.000 371.000 87.934
392.000 371.000 88.732
393.000 371.000 89.613
394.000 371.000 89.706
395.000 371.000 89.379
396.000 371.000 89.381
397.000 371.000 89.239
398.000 371.000 89.195
399.000 371.000 89.391
400.000 371.000 89.327
401.000 371.000 88.879
402.000 371.000 88.513
403.000 371.000 88.511
404.000 371.000 88.546
405.000 371.000 88.629
406.000 371.000 88.982
407.000 371.000 89.027
408.000 371.000 88.312
409.000 371.000 87.966
410.000 371.000 88.625
411.000 371.000 89.460
412.000 371.000 89.476
413.000 371.000 89.138
414.000 371.000 89.304
415.000 371.000 89.268
416.000 371.000 88.967
417.000 371.000 88.801
418.000 371.000 88.896
419.000 371.000 88.817
420.000 371.000 88.627
421.000 371.000 88.646
422.000 371.000 88.893
423.000 371.000 88.875
424.000 371.000 88.353
425.000 371.000 87.859
426.000 371.000 87.914
427.000 371.000 88.487
428.000 371.000 89.090
429.000 371.000 89.021
430.000 371.000 88.934
431.000 371.000 89.290
432.000 371.000 89.723
433.000 371.000 89.447
434.000 371.000 88.936
435.000 371.000 88.853
436.000 371.000 89.109
437.000 371.000 89.330
438.000 371.000 89.361
439.000 371.000 88.831
440.000 371.000 88.502
441.000 371.000 88.715
442.000 371.000 88.948
443.000 371.000 88.964
444.000 371.000 88.766
445.000 371.000 88.746
446.000 371.000 89.003
447.000 371.000 89.581
448.000 371.000 89.761
449.000 371.000 89.257
450.000 371.000 88.867
451.000 371.000 89.034
452.000 371.000 89.072
453.000 371.000 89.010
454.000 371.000 88.806
455.000 371.000 88.335
456.000 371.000 88.055
457.000 371.000 87.965
458.000 371.000 88.115
459.000 371.000 88.584
460.000 371.000 88.773
461.000 371.000 88.945
462.000 371.000 89.241
463.000 371.000 89.236
464.000 371.000 89.399
465.000 371.000 89.582
466.000 371.000 89.226
467.000 371.000 88.819
468.000 371.000 88.737
469.000 371.000 88.902
470.000 371.000 88.916
471.000 371.000 88.777
472.000 371.000 88.738
473.000 371.000 88.859
474.000 371.000 88.915
475.000 371.000 88.710
476.000 371.000 88.684
477.000 371.000 88.760
478.000 371.000 88.673
479.000 371.000 88.437
480.000 371.000 88.422
481.000 371.000 88.617
482.000 371.000 88.469
483.000 371.000 88.462
484.000 371.000 88.884
485.000 371.000 88.997
486.000 371.000 88.628
487.000 371.000 88.393
488.000 371.000 88.735
489.000 371.000 89.142
490.000 371.000 89.052
491.000 371.000 88.712
492.000 371.000 88.548
493.000 371.000 88.696
494.000 371.000 88.868
495.000 371.000 88.978
496.000 371.000 88.845
497.000 371.000 88.810
498.000 371.000 88.749
499.000 371.000 88.757
500.000 371.000 88.915
501.000 371.000 88.847
502.000 371.000 88.594
503.000 371.000 88.474
504.000 371.000 88.696
505.000 371.000 89.066
506.000 371.000 89.294
507.000 371.000 89.262
508.000 371.000 89.236
509.000 371.000 89.176
510.000 371.000 88.858
511.000 371.000 88.629
512.000 371.000 88.838
513.000 371.000 89.107
514.000 371.000 89.650
515.000 371.000 90.288
516.000 371.000 90.195
517.000 371.000 89.476
518.000 371.000 89.025
519.000 371.000 88.886
520.000 371.000 88.842
521.000 371.000 88.836
522.000 371.000 88.552
523.000 371.000 88.388
524.000 371.000 88.627
525.000 371.000 88.871
526.000 371.000 88.759
527.000 371.000 88.803
528.000 371.000 88.838
529.000 371.000 88.970
530.000 371.000 89.471
531.000 371.000 89.743
532.000 371.000 89.357
533.000 371.000 88.947
534.000 371.000 88.524
535.000 371.000 88.425
536.000 371.000 88.610
537.000 371.000 88.894
538.000 371.000 89.315
539.000 371.000 89.508
540.000 371.000 89.572
541.000 371.000 89.082
542.000 371.000 88.281
543.000 371.000 88.106
544.000 371.000 88.530
545.000 371.000 88.922
546.000 371.000 88.947
547.000 371.000 88.953
548.000 371.000 89.123
549.000 371.000 89.067
550.000 371.000 89.292
551.000 371.000 89.445
552.000 371.000 89.050
553.000 371.000 88.903
554.000 371.000 89.309
555.000 371.000 89.521
556.000 371.000 89.360
557.000 371.000 88.838
558.000 371.000 88.490
559.000 371.000 88.506
560.000 371.000 88.780
561.000 371.000 89.061
562.000 371.000 88.973
563.000 371.000 88.738
564.000 371.000 88.790
565.000 371.000 89.206
566.000 371.000 87.035
567.000 371.000 76.623
285.000 372.000 74.006
286.000 372.000 86.835
287.000 372.000 89.105
288.000 372.000 88.851
289.000 372.000 89.157
290.000 372.000 89.133
291.000 372.000 89.013
292.000 372.000 88.825
293.000 372.000 88.740
294.000 372.000 88.969
295.000 372.000 89.193
296.000 372.000 89.697
297.000 372.000 90.178
298.000 372.000 89.964
299.000 372.000 89.605
300.000 372.000 89.577
301.000 372.000 89.214
302.000 372.000 88.984
303.000 372.000 89.080
304.000 372.000 88.970
305.000 372.000 88.719
306.000 372.000 88.829
307.000 372.000 89.116
308.000 372.000 89.187
309.000 372.000 88.689
310.000 372.000 88.499
311.000 372.000 88.948
312.000 372.000 89.125
313.000 372.000 89.372
314.000 372.000 89.600
315.000 372.000 89.343
316.000 372.000 88.969
317.000 372.000 89.007
318.000 372.000 89.312
319.000 372.000 89.308
320.000 372.000 89.262
321.000 372.000 89.311
322.000 372.000 89.564
323.000 372.000 89.559
324.000 372.000 89.210
325.000 372.000 89.145
326.000 372.000 89.226
327.000 372.000 89.141
328.000 372.000 88.548
329.000 372.000 88.123
330.000 372.000 87.847
331.000 372.000 87.505
332.000 372.000 87.687
333.000 372.000 88.318
334.000 372.000 88.686
335.000 372.000 88.409
336.000 372.000 88.230
337.000 372.000 88.448
338.000 372.000 89.084
339.000 372.000 89.713
340.000 372.000 89.804
341.000 372.000 89.495
342.000 372.000 89.324
343.000 372.000 88.977
344.000 372.000 88.450
345.000 372.000 88.709
346.000 372.000 89.522
347.000 372.000 89.641
348.000 372.000 89.196
349.000 372.000 88.766
350.000 372.000 88.859
351.000 372.000 89.020
352.000 372.000 88.998
353.000 372.000 88.932
354.000 372.000 88.846
355.000 372.000 88.862
356.000 372.000 89.132
357.000 372.000 89.214
358.000 372.000 88.635
359.000 372.000 88.110
360.000 372.000 87.833
361.000 372.000 87.736
362.000 372.000 88.016
363.000 372.000 88.774
364.000 372.000 89.478
365.000 372.000 89.213
366.000 372.000 88.497
367.000 372.000 87.853
368.000 372.000 87.710
369.000 372.000 88.026
370.000 372.000 88.373
371.000 372.000 88.498
372.000 372.000 88.556
373.000 372.000 88.694
374.000 372.000 88.954
375.000 372.000 88.974
376.000 372.000 88.947
377.000 372.000 88.944
378.000 372.000 88.838
379.000 372.000 88.867
380.000 372.000 89.452
381.000 372.000 89.755
382.000 372.000 89.403
383.000 372.000 89.116
384.000 372.000 89.055
385.000 372.000 88.861
386.000 372.000 88.906
387.000 372.000 89.217
388.000 372.000 89.244
389.000 372.000 88.882
390.000 372.000 88.469
391.000 372.000 88.088
392.000 372.000 88.246
393.000 372.000 88.927
394.000 372.000 89.112
395.000 372.000 88.624
396.000 372.000 88.677
397.000 372.000 89.008
398.000 372.000 89.073
399.000 372.000 89.014
400.000 372.000 88.990
401.000 372.000 88.962
402.000 372.000 88.861
403.000 372.000 88.770
404.000 372.000 88.613
405.000 372.000 88.663
406.000 372.000 89.057
407.000 372.000 89.285
408.000 372.000 88.993
409.000 372.000 88.662
410.000 372.000 88.879
411.000 372.000 89.416
412.000 372.000 89.303
413.000 372.000 88.908
414.000 372.000 89.281
415.000 372.000 89.708
416.000 372.000 89.588
417.000 372.000 89.022
418.000 372.000 88.577
419.000 372.000 88.452
420.000 372.000 88.320
421.000 372.000 88.262
422.000 372.000 88.531
423.000 372.000 88.931
424.000 372.000 88.843
425.000 372.000 88.574
426.000 372.000 88.515
427.000 372.000 88.808
428.000 372.000 89.364
429.000 372.000 89.283
430.000 372.000 89.090
431.000 372.000 89.266
432.000 372.000 89.499
433.000 372.000 89.133
434.000 372.000 88.468
435.000 372.000 88.156
436.000 372.000 88.321
437.000 372.000 88.783
438.000 372.000 89.127
439.000 372.000 88.801
440.000 372.000 88.756
441.000 372.000 88.884
442.000 372.000 88.781
443.000 372.000 88.771
444.000 372.000 88.823
445.000 372.000 88.874
446.000 372.000 88.981
447.000 372.000 89.453
448.000 372.000 89.686
449.000 372.000 89.616
450.000 372.000 89.762
451.000 372.000 90.072
452.000 372.000 89.874
453.000 372.000 89.423
454.000 372.000 89.240
455.000 372.000 88.930
456.000 372.000 88.359
457.000 372.000 87.983
458.000 372.000 88.152
459.000 372.000 88.707
460.000 372.000 88.955
461.000 372.000 89.147
462.000 372.000 89.470
463.000 372.000 89.488
464.000 372.000 89.251
465.000 372.000 88.964
466.000 372.000 88.525
467.000 372.000 88.393
468.000 372.000 88.773
469.000 372.000 89.022
470.000 372.000 88.927
471.000 372.000 88.784
472.000 372.000 88.720
473.000 372.000 88.750
474.000 372.000 88.852
475.000 372.000 88.835
476.000 372.000 89.151
477.000 372.000 89.305
478.000 372.000 89.133
479.000 372.000 88.737
480.000 372.000 88.174
481.000 372.000 88.160
482.000 372.000 88.440
483.000 372.000 88.687
484.000 372.000 88.946
485.000 372.000 88.802
486.000 372.000 88.573
487.000 372.000 88.481
488.000 372.000 88.849
489.000 372.000 89.465
490.000 372.000 89.637
491.000 372.000 89.449
492.000 372.000 89.048
493.000 372.000 88.888
494.000 372.000 88.889
495.000 372.000 89.092
496.000 372.000 89.075
497.000 372.000 89.031
498.000 372.000 88.894
499.000 372.000 88.826
500.000 372.000 88.868
501.000 372.000 88.398
502.000 372.000 87.964
503.000 372.000 87.986
504.000 372.000 88.416
505.000 372.000 88.807
506.000 372.000 89.031
507.000 372.000 89.059
508.000 372.000 89.017
509.000 372.000 88.816
510.000 372.000 88.368
511.000 372.000 88.156
512.000 372.000 88.362
513.000 372.000 88.828
514.000 372.000 89.520
515.000 372.000 90.032
516.000 372.000 90.121
517.000 372.000 89.787
518.000 372.000 89.269
519.000 372.000 88.881
520.000 372.000 88.884
521.000 372.000 89.098
522.000 372.000 88.941
523.000 372.000 88.744
524.000 372.000 88.873
525.000 372.000 89.078
526.000 372.000 89.049
527.000 372.000 88.942
528.000 372.000 88.804
529.000 372.000 88.937
530.000 372.000 89.242
531.000 372.000 89.149
532.000 372.000 88.648
533.000 372.000 88.528
534.000 372.000 88.674
535.000 372.000 88.704
536.000 372.000 88.705
537.000 372.000 88.893
538.000 372.000 89.085
539.000 372.000 89.030
540.000 372.000 89.080
541.000 372.000 88.891
542.000 372.000 88.347
543.000 372.000 88.056
544.000 372.000 88.363
545.000 372.000 88.963
546.000 372.000 89.305
547.000 372.000 89.370
548.000 372.000 89.278
549.000 372.000 89.177
550.000 372.000 89.491
551.000 372.000 89.684
552.000 372.000 89.132
553.000 372.000 88.705
554.000 372.000 88.906
555.000 372.000 89.053
556.000 372.000 89.133
557.000 372.000 88.960
558.000 372.000 88.540
559.000 372.000 88.436
560.000 372.000 88.932
561.000 372.000 89.254
562.000 372.000 88.968
563.000 372.000 88.625
564.000 372.000 88.660
565.000 372.000 89.061
566.000 372.000 86.832
567.000 372.000 76.107
285.000 373.000 73.647
286.000 373.000 86.512
287.000 373.000 89.104
288.000 373.000 88.802
289.000 373.000 88.892
290.000 373.000 88.756
291.000 373.000 88.647
292.000 373.000 88.572
293.000 373.000 88.467
294.000 373.000 88.430
295.000 373.000 88.548
296.000 373.000 89.051
297.000 373.000 89.637
298.000 373.000 89.672
299.000 373.000 89.432
300.000 373.000 89.506
301.000 373.000 89.458
302.000 373.000 89.179
303.000 373.000 88.715
304.000 373.000 88.244
305.000 373.000 88.220
306.000 373.000 88.666
307.000 373.000 89.093
308.000 373.000 89.318
309.000 373.000 88.865
310.000 373.000 88.633
311.000 373.000 89.317
312.000 373.000 89.721
313.000 373.000 89.763
314.000 373.000 89.715
315.000 373.000 89.386
316.000 373.000 89.062
317.000 373.000 89.078
318.000 373.000 89.270
319.000 373.000 89.283
320.000 373.000 89.190
321.000 373.000 89.224
322.000 373.000 89.681
323.000 373.000 89.842
324.000 373.000 89.414
325.000 373.000 89.301
326.000 373.000 89.506
327.000 373.000 89.395
328.000 373.000 88.889
329.000 373.000 88.393
330.000 373.000 87.925
331.000 373.000 87.497
332.000 373.000 87.747
333.000 373.000 88.527
334.000 373.000 88.943
335.000 373.000 88.830
336.000 373.000 88.601
337.000 373.000 88.386
338.000 373.000 88.807
339.000 373.000 89.509
340.000 373.000 89.630
341.000 373.000 89.395
342.000 373.000 89.030
343.000 373.000 88.416
344.000 373.000 88.098
345.000 373.000 88.726
346.000 373.000 89.502
347.000 373.000 89.438
348.000 373.000 89.076
349.000 373.000 88.840
350.000 373.000 88.943
351.000 373.000 88.998
352.000 373.000 88.854
353.000 373.000 88.900
354.000 373.000 89.098
355.000 373.000 89.281
356.000 373.000 89.378
357.000 373.000 89.164
358.000 373.000 88.783
359.000 373.000 88.739
360.000 373.000 88.679
361.000 373.000 88.271
362.000 373.000 88.246
363.000 373.000 88.910
364.000 373.000 89.464
365.000 373.000 89.006
366.000 373.000 88.260
367.000 373.000 87.947
368.000 373.000 88.218
369.000 373.000 88.701
370.000 373.000 88.763
371.000 373.000 88.485
372.000 373.000 88.385
373.000 373.000 88.489
374.000 373.000 88.540
375.000 373.000 88.454
376.000 373.000 88.420
377.000 373.000 88.324
378.000 373.000 88.195
379.000 373.000 88.401
380.000 373.000 89.083
381.000 373.000 89.532
382.000 373.000 89.469
383.000 373.000 89.204
384.000 373.000 88.967
385.000 373.000 88.735
386.000 373.000 88.693
387.000 373.000 88.979
388.000 373.000 89.269
389.000 373.000 89.220
390.000 373.000 89.140
391.000 373.000 88.876
392.000 373.000 88.636
393.000 373.000 88.671
394.000 373.000 88.483
395.000 373.000 88.050
396.000 373.000 88.209
397.000 373.000 88.652
398.000 373.000 88.909
399.000 373.000 88.904
400.000 373.000 88.829
401.000 373.000 89.005
402.000 373.000 89.186
403.000 373.000 89.046
404.000 373.000 88.820
405.000 373.000 88.992
406.000 373.000 89.461
407.000 373.000 89.734
408.000 373.000 89.636
409.000 373.000 89.306
410.000 373.000 88.971
411.000 373.000 89.000
412.000 373.000 88.967
413.000 373.000 88.702
414.000 373.000 89.015
415.000 373.000 89.483
416.000 373.000 89.474
417.000 373.000 88.864
418.000 373.000 88.295
419.000 373.000 88.333
420.000 373.000 88.631
421.000 373.000 88.752
422.000 373.000 88.886
423.000 373.000 89.274
424.000 373.000 89.397
425.000 373.000 89.246
426.000 373.000 89.011
427.000 373.000 89.151
428.000 373.000 89.593
429.000 373.000 89.559
430.000 373.000 89.407
431.000 373.000 89.403
432.000 373.000 89.444
433.000 373.000 89.228
434.000 373.000 88.581
435.000 373.000 88.004
436.000 373.000 88.038
437.000 373.000 88.507
438.000 373.000 88.771
439.000 373.000 88.577
440.000 373.000 88.806
441.000 373.000 89.059
442.000 373.000 88.917
443.000 373.000 88.791
444.000 373.000 88.841
445.000 373.000 88.950
446.000 373.000 89.092
447.000 373.000 89.425
448.000 373.000 89.537
449.000 373.000 89.642
450.000 373.000 89.850
451.000 373.000 90.115
452.000 373.000 89.945
453.000 373.000 89.476
454.000 373.000 89.450
455.000 373.000 89.427
456.000 373.000 89.051
457.000 373.000 88.853
458.000 373.000 88.975
459.000 373.000 89.227
460.000 373.000 89.127
461.000 373.000 89.133
462.000 373.000 89.465
463.000 373.000 89.264
464.000 373.000 88.524
465.000 373.000 88.169
466.000 373.000 88.198
467.000 373.000 88.346
468.000 373.000 88.695
469.000 373.000 88.921
470.000 373.000 89.104
471.000 373.000 89.190
472.000 373.000 88.943
473.000 373.000 88.597
474.000 373.000 88.494
475.000 373.000 88.581
476.000 373.000 89.075
477.000 373.000 89.409
478.000 373.000 89.534
479.000 373.000 89.315
480.000 373.000 88.575
481.000 373.000 88.424
482.000 373.000 88.933
483.000 373.000 89.201
484.000 373.000 89.131
485.000 373.000 88.863
486.000 373.000 88.761
487.000 373.000 88.779
488.000 373.000 89.029
489.000 373.000 89.549
490.000 373.000 89.722
491.000 373.000 89.622
492.000 373.000 89.153
493.000 373.000 88.836
494.000 373.000 88.772
495.000 373.000 89.104
496.000 373.000 89.244
497.000 373.000 88.949
498.000 373.000 88.708
499.000 373.000 88.787
500.000 373.000 88.847
501.000 373.000 88.280
502.000 373.000 87.928
503.000 373.000 88.066
504.000 373.000 88.613
505.000 373.000 89.161
506.000 373.000 89.456
507.000 373.000 89.350
508.000 373.000 88.964
509.000 373.000 88.413
510.000 373.000 88.043
511.000 373.000 88.177
512.000 373.000 88.471
513.000 373.000 88.959
514.000 373.000 89.548
515.000 373.000 89.594
516.000 373.000 89.507
517.000 373.000 89.352
518.000 373.000 88.899
519.000 373.000 88.564
520.000 373.000 88.710
521.000 373.000 89.131
522.000 373.000 89.130
523.000 373.000 88.869
524.000 373.000 88.893
525.000 373.000 89.022
526.000 373.000 89.146
527.000 373.000 88.990
528.000 373.000 88.617
529.000 373.000 88.503
530.000 373.000 88.626
531.000 373.000 88.406
532.000 373.000 88.078
533.000 373.000 88.141
534.000 373.000 88.432
535.000 373.000 88.507
536.000 373.000 88.627
537.000 373.000 88.977
538.000 373.000 88.906
539.000 373.000 88.492
540.000 373.000 88.288
541.000 373.000 88.449
542.000 373.000 88.639
543.000 373.000 88.706
544.000 373.000 88.944
545.000 373.000 89.429
546.000 373.000 89.495
547.000 373.000 89.189
548.000 373.000 88.885
549.000 373.000 88.873
550.000 373.000 89.241
551.000 373.000 89.581
552.000 373.000 89.230
553.000 373.000 88.833
554.000 373.000 88.639
555.000 373.000 88.461
556.000 373.000 88.754
557.000 373.000 89.141
558.000 373.000 88.866
559.000 373.000 88.722
560.000 373.000 89.239
561.000 373.000 89.485
562.000 373.000 89.144
563.000 373.000 88.796
564.000 373.000 88.542
565.000 373.000 88.701
566.000 373.000 86.505
567.000 373.000 75.723
285.000 374.000 74.229
286.000 374.000 86.155
287.000 374.000 88.732
288.000 374.000 88.635
289.000 374.000 88.846
290.000 374.000 88.849
291.000 374.000 88.704
292.000 374.000 88.627
293.000 374.000 88.535
294.000 374.000 88.304
295.000 374.000 88.017
296.000 374.000 88.231
297.000 374.000 88.927
298.000 374.000 89.207
299.000 374.000 89.088
300.000 374.000 89.266
301.000 374.000 89.527
302.000 374.000 89.373
303.000 374.000 88.677
304.000 374.000 88.035
305.000 374.000 87.927
306.000 374.000 88.153
307.000 374.000 88.554
308.000 374.000 89.016
309.000 374.000 88.879
310.000 374.000 88.752
311.000 374.000 89.366
312.000 374.000 89.659
313.000 374.000 89.590
314.000 374.000 89.523
315.000 374.000 89.198
316.000 374.000 88.868
317.000 374.000 88.786
318.000 374.000 88.879
319.000 374.000 89.171
320.000 374.000 89.350
321.000 374.000 89.244
322.000 374.000 89.575
323.000 374.000 89.830
324.000 374.000 89.655
325.000 374.000 89.557
326.000 374.000 89.558
327.000 374.000 89.481
328.000 374.000 89.598
329.000 374.000 89.417
330.000 374.000 88.592
331.000 374.000 87.747
332.000 374.000 87.821
333.000 374.000 88.500
334.000 374.000 88.965
335.000 374.000 89.006
336.000 374.000 88.535
337.000 374.000 88.045
338.000 374.000 88.548
339.000 374.000 89.445
340.000 374.000 89.668
341.000 374.000 89.440
342.000 374.000 88.877
343.000 374.000 88.084
344.000 374.000 87.865
345.000 374.000 88.597
346.000 374.000 89.278
347.000 374.000 89.232
348.000 374.000 88.963
349.000 374.000 89.003
350.000 374.000 89.335
351.000 374.000 89.315
352.000 374.000 89.068
353.000 374.000 88.955
354.000 374.000 88.997
355.000 374.000 89.342
356.000 374.000 89.548
357.000 374.000 89.086
358.000 374.000 88.610
359.000 374.000 88.898
360.000 374.000 89.300
361.000 374.000 88.898
362.000 374.000 88.421
363.000 374.000 88.632
364.000 374.000 89.007
365.000 374.000 88.660
366.000 374.000 88.225
367.000 374.000 88.530
368.000 374.000 89.096
369.000 374.000 89.414
370.000 374.000 89.235
371.000 374.000 88.772
372.000 374.000 88.760
373.000 374.000 88.945
374.000 374.000 88.694
375.000 374.000 88.357
376.000 374.000 88.299
377.000 374.000 88.080
378.000 374.000 87.968
379.000 374.000 88.364
380.000 374.000 88.996
381.000 374.000 89.438
382.000 374.000 89.423
383.000 374.000 88.804
384.000 374.000 88.338
385.000 374.000 88.290
386.000 374.000 88.346
387.000 374.000 88.712
388.000 374.000 89.330
389.000 374.000 89.512
390.000 374.000 89.626
391.000 374.000 89.759
392.000 374.000 89.703
393.000 374.000 89.338
394.000 374.000 88.703
395.000 374.000 88.417
396.000 374.000 88.675
397.000 374.000 88.822
398.000 374.000 88.876
399.000 374.000 88.840
400.000 374.000 88.607
401.000 374.000 88.674
402.000 374.000 89.081
403.000 374.000 89.056
404.000 374.000 88.873
405.000 374.000 89.081
406.000 374.000 89.698
407.000 374.000 89.918
408.000 374.000 89.557
409.000 374.000 89.113
410.000 374.000 88.803
411.000 374.000 88.925
412.000 374.000 89.214
413.000 374.000 89.118
414.000 374.000 89.116
415.000 374.000 89.022
416.000 374.000 88.758
417.000 374.000 88.358
418.000 374.000 88.190
419.000 374.000 88.615
420.000 374.000 89.283
421.000 374.000 89.575
422.000 374.000 89.561
423.000 374.000 89.515
424.000 374.000 89.493
425.000 374.000 89.531
426.000 374.000 89.417
427.000 374.000 89.599
428.000 374.000 89.878
429.000 374.000 89.827
430.000 374.000 89.742
431.000 374.000 89.536
432.000 374.000 89.260
433.000 374.000 89.160
434.000 374.000 88.814
435.000 374.000 88.297
436.000 374.000 88.212
437.000 374.000 88.509
438.000 374.000 88.537
439.000 374.000 88.424
440.000 374.000 88.745
441.000 374.000 89.166
442.000 374.000 89.142
443.000 374.000 88.835
444.000 374.000 88.731
445.000 374.000 88.739
446.000 374.000 88.976
447.000 374.000 89.476
448.000 374.000 89.543
449.000 374.000 89.383
450.000 374.000 89.350
451.000 374.000 89.611
452.000 374.000 89.489
453.000 374.000 88.880
454.000 374.000 88.773
455.000 374.000 89.110
456.000 374.000 89.359
457.000 374.000 89.659
458.000 374.000 89.653
459.000 374.000 89.294
460.000 374.000 88.924
461.000 374.000 88.959
462.000 374.000 89.062
463.000 374.000 88.609
464.000 374.000 87.949
465.000 374.000 87.990
466.000 374.000 88.558
467.000 374.000 88.919
468.000 374.000 88.969
469.000 374.000 88.905
470.000 374.000 89.094
471.000 374.000 89.308
472.000 374.000 88.994
473.000 374.000 88.529
474.000 374.000 88.209
475.000 374.000 88.185
476.000 374.000 88.518
477.000 374.000 89.092
478.000 374.000 89.720
479.000 374.000 89.856
480.000 374.000 89.379
481.000 374.000 89.157
482.000 374.000 89.354
483.000 374.000 89.319
484.000 374.000 89.061
485.000 374.000 89.078
486.000 374.000 89.384
487.000 374.000 89.507
488.000 374.000 89.418
489.000 374.000 89.558
490.000 374.000 89.400
491.000 374.000 89.092
492.000 374.000 88.609
493.000 374.000 88.282
494.000 374.000 88.428
495.000 374.000 88.997
496.000 374.000 89.144
497.000 374.000 88.564
498.000 374.000 88.302
499.000 374.000 88.619
500.000 374.000 88.962
501.000 374.000 88.678
502.000 374.000 88.365
503.000 374.000 88.422
504.000 374.000 89.053
505.000 374.000 89.779
506.000 374.000 89.946
507.000 374.000 89.496
508.000 374.000 88.807
509.000 374.000 88.151
510.000 374.000 87.963
511.000 374.000 88.341
512.000 374.000 88.754
513.000 374.000 89.125
514.000 374.000 89.325
515.000 374.000 88.859
516.000 374.000 88.589
517.000 374.000 88.696
518.000 374.000 88.714
519.000 374.000 88.713
520.000 374.000 88.880
521.000 374.000 89.204
522.000 374.000 89.134
523.000 374.000 88.786
524.000 374.000 88.826
525.000 374.000 88.956
526.000 374.000 88.988
527.000 374.000 88.692
528.000 374.000 88.341
529.000 374.000 88.142
530.000 374.000 88.153
531.000 374.000 87.911
532.000 374.000 87.791
533.000 374.000 87.923
534.000 374.000 88.224
535.000 374.000 88.366
536.000 374.000 88.439
537.000 374.000 88.769
538.000 374.000 88.783
539.000 374.000 88.563
540.000 374.000 88.268
541.000 374.000 88.391
542.000 374.000 89.006
543.000 374.000 89.539
544.000 374.000 89.696
545.000 374.000 89.644
546.000 374.000 89.198
547.000 374.000 88.592
548.000 374.000 88.351
549.000 374.000 88.492
550.000 374.000 88.880
551.000 374.000 89.324
552.000 374.000 89.470
553.000 374.000 89.517
554.000 374.000 89.071
555.000 374.000 88.415
556.000 374.000 88.729
557.000 374.000 89.486
558.000 374.000 89.397
559.000 374.000 89.244
560.000 374.000 89.670
561.000 374.000 89.888
562.000 374.000 89.638
563.000 374.000 89.265
564.000 374.000 88.698
565.000 374.000 88.594
566.000 374.000 86.222
567.000 374.000 74.813
285.000 375.000 74.669
286.000 375.000 85.947
287.000 375.000 88.450
288.000 375.000 88.588
289.000 375.000 88.932
290.000 375.000 89.020
291.000 375.000 89.146
292.000 375.000 89.331
293.000 375.000 89.260
294.000 375.000 88.889
295.000 375.000 88.421
296.000 375.000 88.390
297.000 375.000 88.798
298.000 375.000 88.908
299.000 375.000 88.893
300.000 375.000 89.364
301.000 375.000 89.875
302.000 375.000 89.808
303.000 375.000 89.342
304.000 375.000 88.896
305.000 375.000 88.603
306.000 375.000 88.305
307.000 375.000 88.206
308.000 375.000 88.459
309.000 375.000 88.582
310.000 375.000 88.712
311.000 375.000 89.224
312.000 375.000 89.322
313.000 375.000 89.255
314.000 375.000 89.219
315.000 375.000 88.793
316.000 375.000 88.469
317.000 375.000 88.599
318.000 375.000 88.834
319.000 375.000 89.292
320.000 375.000 89.629
321.000 375.000 89.343
322.000 375.000 89.302
323.000 375.000 89.456
324.000 375.000 89.567
325.000 375.000 89.540
326.000 375.000 89.302
327.000 375.000 89.376
328.000 375.000 89.999
329.000 375.000 89.930
330.000 375.000 88.819
331.000 375.000 87.914
332.000 375.000 87.896
333.000 375.000 88.341
334.000 375.000 88.796
335.000 375.000 88.852
336.000 375.000 88.428
337.000 375.000 88.223
338.000 375.000 88.757
339.000 375.000 89.432
340.000 375.000 89.759
341.000 375.000 89.721
342.000 375.000 89.098
343.000 375.000 88.246
344.000 375.000 87.895
345.000 375.000 88.292
346.000 375.000 88.887
347.000 375.000 89.207
348.000 375.000 89.159
349.000 375.000 89.211
350.000 375.000 89.440
351.000 375.000 89.395
352.000 375.000 89.339
353.000 375.000 89.335
354.000 375.000 89.178
355.000 375.000 89.249
356.000 375.000 89.310
357.000 375.000 88.810
358.000 375.000 88.316
359.000 375.000 88.676
360.000 375.000 89.326
361.000 375.000 89.174
362.000 375.000 88.627
363.000 375.000 88.488
364.000 375.000 88.647
365.000 375.000 88.605
366.000 375.000 88.498
367.000 375.000 88.954
368.000 375.000 89.396
369.000 375.000 89.557
370.000 375.000 89.344
371.000 375.000 88.895
372.000 375.000 89.093
373.000 375.000 89.398
374.000 375.000 89.039
375.000 375.000 88.467
376.000 375.000 88.336
377.000 375.000 88.226
378.000 375.000 88.271
379.000 375.000 88.644
380.000 375.000 88.893
381.000 375.000 89.174
382.000 375.000 89.353
383.000 375.000 88.755
384.000 375.000 88.176
385.000 375.000 88.064
386.000 375.000 88.045
387.000 375.000 88.455
388.000 375.000 89.107
389.000 375.000 89.344
390.000 375.000 89.656
391.000 375.000 90.030
392.000 375.000 90.187
393.000 375.000 89.977
394.000 375.000 89.480
395.000 375.000 89.352
396.000 375.000 89.561
397.000 375.000 89.515
398.000 375.000 89.198
399.000 375.000 88.704
400.000 375.000 88.182
401.000 375.000 88.266
402.000 375.000 88.976
403.000 375.000 89.251
404.000 375.000 89.154
405.000 375.000 89.285
406.000 375.000 89.714
407.000 375.000 89.528
408.000 375.000 88.878
409.000 375.000 88.535
410.000 375.000 88.605
411.000 375.000 88.938
412.000 375.000 89.368
413.000 375.000 89.426
414.000 375.000 89.243
415.000 375.000 88.757
416.000 375.000 88.393
417.000 375.000 88.252
418.000 375.000 88.232
419.000 375.000 88.695
420.000 375.000 89.335
421.000 375.000 89.568
422.000 375.000 89.572
423.000 375.000 89.419
424.000 375.000 89.388
425.000 375.000 89.412
426.000 375.000 89.334
427.000 375.000 89.642
428.000 375.000 90.063
429.000 375.000 90.085
430.000 375.000 89.678
431.000 375.000 89.062
432.000 375.000 88.581
433.000 375.000 88.666
434.000 375.000 88.672
435.000 375.000 88.343
436.000 375.000 88.202
437.000 375.000 88.556
438.000 375.000 88.854
439.000 375.000 88.957
440.000 375.000 89.139
441.000 375.000 89.452
442.000 375.000 89.581
443.000 375.000 89.301
444.000 375.000 89.090
445.000 375.000 88.892
446.000 375.000 88.900
447.000 375.000 89.356
448.000 375.000 89.489
449.000 375.000 89.304
450.000 375.000 89.275
451.000 375.000 89.377
452.000 375.000 89.059
453.000 375.000 88.342
454.000 375.000 88.193
455.000 375.000 88.693
456.000 375.000 89.182
457.000 375.000 89.697
458.000 375.000 89.678
459.000 375.000 89.095
460.000 375.000 88.818
461.000 375.000 88.922
462.000 375.000 88.648
463.000 375.000 88.226
464.000 375.000 88.106
465.000 375.000 88.477
466.000 375.000 89.208
467.000 375.000 89.770
468.000 375.000 89.679
469.000 375.000 89.116
470.000 375.000 88.894
471.000 375.000 89.053
472.000 375.000 88.967
473.000 375.000 88.722
474.000 375.000 88.409
475.000 375.000 88.274
476.000 375.000 88.415
477.000 375.000 89.008
478.000 375.000 89.632
479.000 375.000 89.888
480.000 375.000 89.859
481.000 375.000 89.718
482.000 375.000 89.440
483.000 375.000 88.966
484.000 375.000 88.610
485.000 375.000 88.980
486.000 375.000 89.756
487.000 375.000 90.047
488.000 375.000 89.734
489.000 375.000 89.579
490.000 375.000 89.279
491.000 375.000 88.763
492.000 375.000 88.264
493.000 375.000 87.987
494.000 375.000 88.312
495.000 375.000 88.975
496.000 375.000 89.023
497.000 375.000 88.432
498.000 375.000 88.239
499.000 375.000 88.609
500.000 375.000 89.152
501.000 375.000 89.054
502.000 375.000 88.365
503.000 375.000 88.103
504.000 375.000 88.754
505.000 375.000 89.599
506.000 375.000 89.767
507.000 375.000 89.264
508.000 375.000 88.616
509.000 375.000 88.169
510.000 375.000 88.154
511.000 375.000 88.461
512.000 375.000 88.606
513.000 375.000 88.697
514.000 375.000 88.887
515.000 375.000 88.681
516.000 375.000 88.583
517.000 375.000 88.958
518.000 375.000 89.316
519.000 375.000 89.410
520.000 375.000 89.359
521.000 375.000 89.521
522.000 375.000 89.455
523.000 375.000 89.131
524.000 375.000 89.073
525.000 375.000 89.149
526.000 375.000 89.114
527.000 375.000 88.635
528.000 375.000 88.229
529.000 375.000 88.064
530.000 375.000 88.000
531.000 375.000 87.672
532.000 375.000 87.553
533.000 375.000 87.832
534.000 375.000 88.327
535.000 375.000 88.498
536.000 375.000 88.398
537.000 375.000 88.644
538.000 375.000 88.951
539.000 375.000 89.239
540.000 375.000 89.092
541.000 375.000 88.857
542.000 375.000 89.207
543.000 375.000 89.805
544.000 375.000 89.926
545.000 375.000 89.357
546.000 375.000 88.620
547.000 375.000 88.179
548.000 375.000 88.181
549.000 375.000 88.410
550.000 375.000 88.809
551.000 375.000 89.170
552.000 375.000 89.559
553.000 375.000 89.830
554.000 375.000 89.350
555.000 375.000 88.568
556.000 375.000 88.944
557.000 375.000 89.703
558.000 375.000 89.501
559.000 375.000 89.310
560.000 375.000 89.777
561.000 375.000 89.986
562.000 375.000 89.803
563.000 375.000 89.572
564.000 375.000 89.284
565.000 375.000 89.176
566.000 375.000 86.341
567.000 375.000 73.917
285.000 376.000 74.621
286.000 376.000 86.054
287.000 376.000 88.662
288.000 376.000 88.825
289.000 376.000 89.025
290.000 376.000 88.905
291.000 376.000 89.168
292.000 376.000 89.614
293.000 376.000 89.714
294.000 376.000 89.526
295.000 376.000 89.379
296.000 376.000 89.420
297.000 376.000 89.318
298.000 376.000 88.813
299.000 376.000 88.720
300.000 376.000 89.462
301.000 376.000 90.070
302.000 376.000 90.063
303.000 376.000 89.941
304.000 376.000 89.694
305.000 376.000 89.390
306.000 376.000 89.040
307.000 376.000 88.594
308.000 376.000 88.563
309.000 376.000 88.602
310.000 376.000 88.682
311.000 376.000 89.087
312.000 376.000 89.050
313.000 376.000 88.944
314.000 376.000 89.027
315.000 376.000 88.926
316.000 376.000 88.884
317.000 376.000 89.203
318.000 376.000 89.264
319.000 376.000 89.283
320.000 376.000 89.547
321.000 376.000 89.410
322.000 376.000 89.285
323.000 376.000 89.265
324.000 376.000 89.340
325.000 376.000 89.371
326.000 376.000 89.115
327.000 376.000 89.290
328.000 376.000 89.965
329.000 376.000 89.886
330.000 376.000 88.934
331.000 376.000 88.373
332.000 376.000 88.288
333.000 376.000 88.422
334.000 376.000 88.779
335.000 376.000 88.697
336.000 376.000 88.569
337.000 376.000 88.937
338.000 376.000 89.255
339.000 376.000 89.323
340.000 376.000 89.645
341.000 376.000 89.811
342.000 376.000 89.204
343.000 376.000 88.314
344.000 376.000 87.855
345.000 376.000 87.965
346.000 376.000 88.507
347.000 376.000 89.129
348.000 376.000 89.522
349.000 376.000 89.551
350.000 376.000 89.346
351.000 376.000 89.313
352.000 376.000 89.433
353.000 376.000 89.598
354.000 376.000 89.488
355.000 376.000 89.238
356.000 376.000 89.083
357.000 376.000 88.878
358.000 376.000 88.659
359.000 376.000 88.930
360.000 376.000 89.302
361.000 376.000 89.279
362.000 376.000 89.111
363.000 376.000 89.092
364.000 376.000 89.042
365.000 376.000 88.918
366.000 376.000 88.568
367.000 376.000 88.462
368.000 376.000 88.586
369.000 376.000 88.954
370.000 376.000 89.056
371.000 376.000 88.687
372.000 376.000 88.850
373.000 376.000 89.210
374.000 376.000 88.930
375.000 376.000 88.424
376.000 376.000 88.328
377.000 376.000 88.324
378.000 376.000 88.544
379.000 376.000 88.995
380.000 376.000 89.103
381.000 376.000 89.204
382.000 376.000 89.391
383.000 376.000 89.065
384.000 376.000 88.613
385.000 376.000 88.369
386.000 376.000 88.207
387.000 376.000 88.482
388.000 376.000 88.899
389.000 376.000 88.942
390.000 376.000 89.174
391.000 376.000 89.565
392.000 376.000 89.886
393.000 376.000 90.080
394.000 376.000 90.073
395.000 376.000 90.031
396.000 376.000 89.919
397.000 376.000 89.734
398.000 376.000 89.450
399.000 376.000 88.915
400.000 376.000 88.362
401.000 376.000 88.311
402.000 376.000 88.856
403.000 376.000 89.307
404.000 376.000 89.354
405.000 376.000 89.491
406.000 376.000 89.564
407.000 376.000 89.073
408.000 376.000 88.613
409.000 376.000 88.580
410.000 376.000 88.787
411.000 376.000 88.853
412.000 376.000 88.981
413.000 376.000 89.248
414.000 376.000 89.272
415.000 376.000 88.825
416.000 376.000 88.693
417.000 376.000 88.843
418.000 376.000 88.637
419.000 376.000 88.752
420.000 376.000 89.282
421.000 376.000 89.524
422.000 376.000 89.620
423.000 376.000 89.502
424.000 376.000 89.353
425.000 376.000 88.894
426.000 376.000 88.633
427.000 376.000 89.165
428.000 376.000 89.970
429.000 376.000 90.173
430.000 376.000 89.477
431.000 376.000 88.625
432.000 376.000 88.214
433.000 376.000 88.501
434.000 376.000 88.610
435.000 376.000 88.226
436.000 376.000 87.873
437.000 376.000 88.321
438.000 376.000 89.162
439.000 376.000 89.529
440.000 376.000 89.434
441.000 376.000 89.332
442.000 376.000 89.589
443.000 376.000 89.737
444.000 376.000 89.686
445.000 376.000 89.374
446.000 376.000 88.987
447.000 376.000 88.979
448.000 376.000 89.078
449.000 376.000 89.260
450.000 376.000 89.487
451.000 376.000 89.330
452.000 376.000 88.761
453.000 376.000 88.139
454.000 376.000 88.186
455.000 376.000 88.802
456.000 376.000 89.267
457.000 376.000 89.559
458.000 376.000 89.492
459.000 376.000 89.058
460.000 376.000 88.843
461.000 376.000 88.863
462.000 376.000 88.609
463.000 376.000 88.534
464.000 376.000 88.839
465.000 376.000 89.221
466.000 376.000 89.567
467.000 376.000 89.882
468.000 376.000 89.781
469.000 376.000 89.081
470.000 376.000 88.607
471.000 376.000 88.650
472.000 376.000 89.009
473.000 376.000 89.180
474.000 376.000 88.918
475.000 376.000 88.539
476.000 376.000 88.337
477.000 376.000 88.698
478.000 376.000 89.175
479.000 376.000 89.433
480.000 376.000 89.582
481.000 376.000 89.493
482.000 376.000 89.090
483.000 376.000 88.575
484.000 376.000 88.347
485.000 376.000 88.870
486.000 376.000 89.684
487.000 376.000 90.159
488.000 376.000 89.902
489.000 376.000 89.531
490.000 376.000 89.379
491.000 376.000 89.034
492.000 376.000 88.559
493.000 376.000 88.211
494.000 376.000 88.390
495.000 376.000 88.788
496.000 376.000 88.711
497.000 376.000 88.492
498.000 376.000 88.617
499.000 376.000 88.861
500.000 376.000 89.179
501.000 376.000 89.081
502.000 376.000 88.241
503.000 376.000 87.629
504.000 376.000 87.985
505.000 376.000 88.806
506.000 376.000 89.195
507.000 376.000 88.889
508.000 376.000 88.393
509.000 376.000 88.198
510.000 376.000 88.191
511.000 376.000 88.391
512.000 376.000 88.603
513.000 376.000 88.692
514.000 376.000 89.043
515.000 376.000 89.353
516.000 376.000 89.431
517.000 376.000 89.508
518.000 376.000 89.393
519.000 376.000 89.329
520.000 376.000 89.424
521.000 376.000 89.824
522.000 376.000 90.014
523.000 376.000 89.714
524.000 376.000 89.269
525.000 376.000 89.052
526.000 376.000 89.139
527.000 376.000 88.951
528.000 376.000 88.594
529.000 376.000 88.325
530.000 376.000 88.096
531.000 376.000 87.872
532.000 376.000 87.781
533.000 376.000 88.073
534.000 376.000 88.745
535.000 376.000 89.084
536.000 376.000 88.971
537.000 376.000 89.179
538.000 376.000 89.593
539.000 376.000 90.012
540.000 376.000 89.789
541.000 376.000 89.247
542.000 376.000 89.261
543.000 376.000 89.652
544.000 376.000 89.808
545.000 376.000 89.218
546.000 376.000 88.619
547.000 376.000 88.546
548.000 376.000 88.691
549.000 376.000 88.861
550.000 376.000 89.117
551.000 376.000 89.251
552.000 376.000 89.363
553.000 376.000 89.266
554.000 376.000 88.794
555.000 376.000 88.474
556.000 376.000 89.135
557.000 376.000 89.621
558.000 376.000 89.079
559.000 376.000 88.725
560.000 376.000 89.336
561.000 376.000 89.903
562.000 376.000 89.873
563.000 376.000 89.544
564.000 376.000 89.478
565.000 376.000 89.469
566.000 376.000 86.584
567.000 376.000 74.329
285.000 377.000 75.767
286.000 377.000 86.309
287.000 377.000 88.731
288.000 377.000 88.917
289.000 377.000 89.099
290.000 377.000 88.879
291.000 377.000 88.902
292.000 377.000 89.329
293.000 377.000 89.604
294.000 377.000 89.617
295.000 377.000 89.520
296.000 377.000 89.558
297.000 377.000 89.395
298.000 377.000 88.877
299.000 377.000 88.818
300.000 377.000 89.353
301.000 377.000 89.566
302.000 377.000 89.505
303.000 377.000 89.720
304.000 377.000 89.756
305.000 377.000 89.778
306.000 377.000 89.681
307.000 377.000 89.270
308.000 377.000 89.235
309.000 377.000 89.088
310.000 377.000 88.992
311.000 377.000 89.250
312.000 377.000 89.167
313.000 377.000 89.009
314.000 377.000 89.227
315.000 377.000 89.581
316.000 377.000 89.672
317.000 377.000 89.696
318.000 377.000 89.413
319.000 377.000 89.187
320.000 377.000 89.514
321.000 377.000 89.666
322.000 377.000 89.524
323.000 377.000 89.278
324.000 377.000 89.118
325.000 377.000 88.985
326.000 377.000 88.748
327.000 377.000 89.035
328.000 377.000 89.555
329.000 377.000 89.556
330.000 377.000 89.159
331.000 377.000 88.970
332.000 377.000 88.815
333.000 377.000 88.655
334.000 377.000 88.592
335.000 377.000 88.290
336.000 377.000 88.450
337.000 377.000 89.231
338.000 377.000 89.532
339.000 377.000 89.447
340.000 377.000 89.706
341.000 377.000 89.820
342.000 377.000 89.257
343.000 377.000 88.241
344.000 377.000 87.668
345.000 377.000 87.816
346.000 377.000 88.240
347.000 377.000 88.649
348.000 377.000 89.317
349.000 377.000 89.530
350.000 377.000 89.074
351.000 377.000 88.986
352.000 377.000 89.164
353.000 377.000 89.399
354.000 377.000 89.372
355.000 377.000 89.107
356.000 377.000 89.178
357.000 377.000 89.367
358.000 377.000 89.298
359.000 377.000 89.369
360.000 377.000 89.410
361.000 377.000 89.604
362.000 377.000 89.774
363.000 377.000 89.797
364.000 377.000 89.661
365.000 377.000 89.467
366.000 377.000 88.730
367.000 377.000 88.002
368.000 377.000 87.900
369.000 377.000 88.284
370.000 377.000 88.570
371.000 377.000 88.428
