ply
format ascii 1.0
element vertex 2048
property float x
property float y
property float z
end_header
1254.000 313.000 88.804
1255.000 313.000 88.525
1256.000 313.000 87.572
1257.000 313.000 84.735
1258.000 313.000 78.855
1259.000 313.000 69.707
656.000 314.000 74.580
657.000 314.000 82.917
658.000 314.000 86.570
659.000 314.000 88.180
660.000 314.000 88.838
661.000 314.000 88.868
662.000 314.000 89.106
663.000 314.000 89.479
664.000 314.000 89.515
665.000 314.000 89.087
666.000 314.000 89.007
667.000 314.000 89.615
668.000 314.000 89.793
669.000 314.000 89.325
670.000 314.000 88.855
671.000 314.000 88.872
672.000 314.000 88.938
673.000 314.000 88.933
674.000 314.000 89.131
675.000 314.000 89.178
676.000 314.000 89.036
677.000 314.000 89.257
678.000 314.000 89.640
679.000 314.000 89.444
680.000 314.000 88.887
681.000 314.000 88.756
682.000 314.000 89.314
683.000 314.000 89.448
684.000 314.000 88.828
685.000 314.000 88.661
686.000 314.000 89.015
687.000 314.000 89.135
688.000 314.000 88.891
689.000 314.000 88.578
690.000 314.000 88.325
691.000 314.000 88.078
692.000 314.000 88.126
693.000 314.000 88.331
694.000 314.000 88.633
695.000 314.000 88.455
696.000 314.000 88.356
697.000 314.000 88.747
698.000 314.000 88.896
699.000 314.000 88.831
700.000 314.000 88.891
701.000 314.000 89.298
702.000 314.000 89.464
703.000 314.000 89.229
704.000 314.000 89.147
705.000 314.000 89.675
706.000 314.000 90.179
707.000 314.000 90.068
708.000 314.000 89.728
709.000 314.000 89.605
710.000 314.000 89.639
711.000 314.000 89.529
712.000 314.000 89.213
713.000 314.000 88.655
714.000 314.000 88.373
715.000 314.000 88.295
716.000 314.000 88.395
717.000 314.000 88.449
718.000 314.000 88.017
719.000 314.000 87.859
720.000 314.000 88.068
721.000 314.000 88.556
722.000 314.000 89.098
723.000 314.000 89.447
724.000 314.000 89.335
725.000 314.000 88.930
726.000 314.000 88.594
727.000 314.000 88.646
728.000 314.000 88.902
729.000 314.000 89.312
730.000 314.000 89.361
731.000 314.000 89.319
732.000 314.000 89.432
733.000 314.000 89.837
734.000 314.000 89.700
735.000 314.000 89.127
736.000 314.000 89.233
737.000 314.000 89.633
738.000 314.000 89.634
739.000 314.000 89.208
740.000 314.000 88.730
741.000 314.000 88.958
742.000 314.000 89.595
743.000 314.000 89.758
744.000 314.000 89.643
745.000 314.000 89.528
746.000 314.000 89.384
747.000 314.000 89.020
748.000 314.000 88.459
749.000 314.000 88.176
750.000 314.000 88.401
751.000 314.000 89.049
752.000 314.000 89.516
753.000 314.000 89.356
754.000 314.000 88.828
755.000 314.000 88.662
756.000 314.000 88.852
757.000 314.000 89.056
758.000 314.000 89.091
759.000 314.000 88.970
760.000 314.000 89.005
761.000 314.000 88.965
762.000 314.000 89.288
763.000 314.000 89.739
764.000 314.000 89.612
765.000 314.000 88.918
766.000 314.000 88.930
767.000 314.000 89.107
768.000 314.000 88.682
769.000 314.000 88.465
770.000 314.000 89.111
771.000 314.000 89.648
772.000 314.000 89.220
773.000 314.000 88.540
774.000 314.000 88.108
775.000 314.000 87.828
776.000 314.000 88.096
777.000 314.000 88.948
778.000 314.000 89.718
779.000 314.000 89.797
780.000 314.000 89.417
781.000 314.000 88.862
782.000 314.000 88.476
783.000 314.000 88.374
784.000 314.000 88.777
785.000 314.000 89.125
786.000 314.000 89.141
787.000 314.000 88.989
788.000 314.000 88.653
789.000 314.000 88.450
790.000 314.000 88.522
791.000 314.000 88.658
792.000 314.000 89.061
793.000 314.000 89.349
794.000 314.000 89.255
795.000 314.000 89.020
796.000 314.000 88.863
797.000 314.000 88.860
798.000 314.000 89.315
799.000 314.000 89.297
800.000 314.000 88.562
801.000 314.000 88.381
802.000 314.000 88.588
803.000 314.000 88.880
804.000 314.000 89.155
805.000 314.000 89.173
806.000 314.000 88.808
807.000 314.000 88.761
808.000 314.000 89.041
809.000 314.000 89.081
810.000 314.000 89.189
811.000 314.000 88.910
812.000 314.000 88.561
813.000 314.000 88.268
814.000 314.000 88.476
815.000 314.000 88.963
816.000 314.000 89.141
817.000 314.000 89.248
818.000 314.000 89.248
819.000 314.000 89.142
820.000 314.000 89.510
821.000 314.000 90.025
822.000 314.000 90.371
823.000 314.000 90.497
824.000 314.000 90.148
825.000 314.000 89.519
826.000 314.000 89.180
827.000 314.000 88.906
828.000 314.000 88.481
829.000 314.000 88.785
830.000 314.000 89.274
831.000 314.000 89.327
832.000 314.000 89.147
833.000 314.000 88.966
834.000 314.000 89.093
835.000 314.000 89.545
836.000 314.000 89.574
837.000 314.000 89.178
838.000 314.000 89.303
839.000 314.000 89.737
840.000 314.000 90.048
841.000 314.000 89.474
842.000 314.000 88.729
843.000 314.000 88.786
844.000 314.000 89.122
845.000 314.000 88.978
846.000 314.000 88.440
847.000 314.000 88.012
848.000 314.000 88.168
849.000 314.000 88.510
850.000 314.000 88.697
851.000 314.000 88.583
852.000 314.000 88.738
853.000 314.000 89.141
854.000 314.000 89.232
855.000 314.000 89.197
856.000 314.000 89.178
857.000 314.000 89.153
858.000 314.000 89.320
859.000 314.000 89.240
860.000 314.000 89.013
861.000 314.000 88.905
862.000 314.000 88.744
863.000 314.000 88.818
864.000 314.000 88.922
865.000 314.000 88.894
866.000 314.000 89.046
867.000 314.000 89.144
868.000 314.000 88.995
869.000 314.000 88.818
870.000 314.000 88.577
871.000 314.000 88.567
872.000 314.000 89.038
873.000 314.000 89.669
874.000 314.000 89.704
875.000 314.000 89.139
876.000 314.000 88.356
877.000 314.000 88.112
878.000 314.000 88.620
879.000 314.000 88.771
880.000 314.000 88.554
881.000 314.000 88.489
882.000 314.000 88.374
883.000 314.000 88.327
884.000 314.000 88.424
885.000 314.000 88.857
886.000 314.000 88.933
887.000 314.000 88.642
888.000 314.000 88.673
889.000 314.000 88.674
890.000 314.000 88.747
891.000 314.000 89.002
892.000 314.000 89.164
893.000 314.000 89.261
894.000 314.000 89.314
895.000 314.000 89.012
896.000 314.000 88.402
897.000 314.000 88.406
898.000 314.000 89.205
899.000 314.000 89.511
900.000 314.000 89.396
901.000 314.000 89.649
902.000 314.000 89.906
903.000 314.000 89.675
904.000 314.000 89.242
905.000 314.000 88.690
906.000 314.000 88.087
907.000 314.000 87.853
908.000 314.000 88.041
909.000 314.000 88.506
910.000 314.000 88.663
911.000 314.000 88.420
912.000 314.000 88.504
913.000 314.000 88.941
914.000 314.000 89.132
915.000 314.000 88.791
916.000 314.000 88.390
917.000 314.000 88.740
918.000 314.000 89.623
919.000 314.000 89.660
920.000 314.000 88.990
921.000 314.000 88.945
922.000 314.000 89.552
923.000 314.000 89.698
924.000 314.000 89.202
925.000 314.000 88.860
926.000 314.000 88.897
927.000 314.000 89.291
928.000 314.000 89.373
929.000 314.000 88.946
930.000 314.000 88.471
931.000 314.000 88.154
932.000 314.000 88.215
933.000 314.000 88.970
934.000 314.000 89.594
935.000 314.000 89.759
936.000 314.000 89.318
937.000 314.000 88.495
938.000 314.000 88.174
939.000 314.000 88.400
940.000 314.000 88.795
941.000 314.000 88.728
942.000 314.000 88.303
943.000 314.000 88.335
944.000 314.000 88.519
945.000 314.000 88.881
946.000 314.000 89.579
947.000 314.000 89.759
948.000 314.000 89.328
949.000 314.000 88.891
950.000 314.000 88.753
951.000 314.000 88.868
952.000 314.000 88.752
953.000 314.000 88.816
954.000 314.000 89.313
955.000 314.000 89.806
956.000 314.000 89.948
957.000 314.000 89.700
958.000 314.000 89.466
959.000 314.000 89.265
960.000 314.000 89.092
961.000 314.000 89.130
962.000 314.000 88.984
963.000 314.000 88.535
964.000 314.000 88.443
965.000 314.000 88.730
966.000 314.000 88.757
967.000 314.000 88.706
968.000 314.000 88.649
969.000 314.000 88.634
970.000 314.000 88.765
971.000 314.000 88.814
972.000 314.000 88.602
973.000 314.000 88.608
974.000 314.000 89.098
975.000 314.000 89.175
976.000 314.000 88.718
977.000 314.000 88.603
978.000 314.000 88.995
979.000 314.000 89.160
980.000 314.000 88.595
981.000 314.000 88.455
982.000 314.000 88.952
983.000 314.000 89.202
984.000 314.000 89.234
985.000 314.000 89.436
986.000 314.000 89.715
987.000 314.000 89.441
988.000 314.000 89.073
989.000 314.000 89.335
990.000 314.000 89.614
991.000 314.000 89.050
992.000 314.000 88.151
993.000 314.000 88.058
994.000 314.000 88.866
995.000 314.000 89.484
996.000 314.000 89.187
997.000 314.000 88.882
998.000 314.000 88.739
999.000 314.000 88.640
1000.000 314.000 88.791
1001.000 314.000 88.510
1002.000 314.000 88.156
1003.000 314.000 88.582
1004.000 314.000 89.386
1005.000 314.000 89.773
1006.000 314.000 89.714
1007.000 314.000 89.373
1008.000 314.000 89.114
1009.000 314.000 89.040
1010.000 314.000 89.123
1011.000 314.000 89.286
1012.000 314.000 89.156
1013.000 314.000 88.729
1014.000 314.000 88.524
1015.000 314.000 88.487
1016.000 314.000 88.780
1017.000 314.000 89.064
1018.000 314.000 88.428
1019.000 314.000 88.004
1020.000 314.000 88.575
1021.000 314.000 89.462
1022.000 314.000 89.704
1023.000 314.000 89.289
1024.000 314.000 89.102
1025.000 314.000 89.076
1026.000 314.000 88.940
1027.000 314.000 88.605
1028.000 314.000 88.688
1029.000 314.000 88.930
1030.000 314.000 88.786
1031.000 314.000 88.529
1032.000 314.000 88.519
1033.000 314.000 88.678
1034.000 314.000 89.193
1035.000 314.000 89.822
1036.000 314.000 90.224
1037.000 314.000 90.308
1038.000 314.000 90.099
1039.000 314.000 89.524
1040.000 314.000 88.879
1041.000 314.000 88.657
1042.000 314.000 88.795
1043.000 314.000 89.435
1044.000 314.000 90.098
1045.000 314.000 89.821
1046.000 314.000 89.052
1047.000 314.000 89.055
1048.000 314.000 89.804
1049.000 314.000 90.256
1050.000 314.000 90.334
1051.000 314.000 90.097
1052.000 314.000 89.564
1053.000 314.000 89.019
1054.000 314.000 88.929
1055.000 314.000 89.008
1056.000 314.000 88.750
1057.000 314.000 88.544
1058.000 314.000 88.608
1059.000 314.000 88.749
1060.000 314.000 88.787
1061.000 314.000 88.562
1062.000 314.000 88.272
1063.000 314.000 87.992
1064.000 314.000 88.068
1065.000 314.000 88.435
1066.000 314.000 89.041
1067.000 314.000 89.398
1068.000 314.000 88.779
1069.000 314.000 88.085
1070.000 314.000 88.315
1071.000 314.000 89.130
1072.000 314.000 89.958
1073.000 314.000 90.400
1074.000 314.000 90.337
1075.000 314.000 89.824
1076.000 314.000 89.274
1077.000 314.000 89.192
1078.000 314.000 89.000
1079.000 314.000 88.692
1080.000 314.000 88.621
1081.000 314.000 88.713
1082.000 314.000 88.744
1083.000 314.000 88.788
1084.000 314.000 88.457
1085.000 314.000 88.245
1086.000 314.000 88.508
1087.000 314.000 88.847
1088.000 314.000 88.981
1089.000 314.000 88.933
1090.000 314.000 89.150
1091.000 314.000 89.529
1092.000 314.000 89.329
1093.000 314.000 89.055
1094.000 314.000 89.186
1095.000 314.000 89.181
1096.000 314.000 89.215
1097.000 314.000 89.023
1098.000 314.000 88.367
1099.000 314.000 88.099
1100.000 314.000 88.260
1101.000 314.000 88.311
1102.000 314.000 88.381
1103.000 314.000 88.501
1104.000 314.000 88.999
1105.000 314.000 89.511
1106.000 314.000 89.842
1107.000 314.000 89.908
1108.000 314.000 89.629
1109.000 314.000 89.371
1110.000 314.000 89.403
1111.000 314.000 89.134
1112.000 314.000 88.981
1113.000 314.000 89.009
1114.000 314.000 89.143
1115.000 314.000 89.423
1116.000 314.000 89.544
1117.000 314.000 89.534
1118.000 314.000 89.341
1119.000 314.000 89.236
1120.000 314.000 89.086
1121.000 314.000 88.909
1122.000 314.000 88.944
1123.000 314.000 89.403
1124.000 314.000 89.684
1125.000 314.000 89.889
1126.000 314.000 89.737
1127.000 314.000 89.238
1128.000 314.000 88.630
1129.000 314.000 88.215
1130.000 314.000 88.629
1131.000 314.000 89.175
1132.000 314.000 89.087
1133.000 314.000 88.998
1134.000 314.000 89.140
1135.000 314.000 89.066
1136.000 314.000 88.641
1137.000 314.000 88.579
1138.000 314.000 88.863
1139.000 314.000 89.069
1140.000 314.000 88.927
1141.000 314.000 88.835
1142.000 314.000 88.952
1143.000 314.000 89.374
1144.000 314.000 89.585
1145.000 314.000 89.094
1146.000 314.000 88.597
1147.000 314.000 88.638
1148.000 314.000 88.830
1149.000 314.000 89.080
1150.000 314.000 89.338
1151.000 314.000 89.490
1152.000 314.000 89.429
1153.000 314.000 89.602
1154.000 314.000 89.765
1155.000 314.000 89.785
1156.000 314.000 89.773
1157.000 314.000 89.666
1158.000 314.000 89.356
1159.000 314.000 88.721
1160.000 314.000 88.136
1161.000 314.000 88.294
1162.000 314.000 89.242
1163.000 314.000 89.797
1164.000 314.000 89.395
1165.000 314.000 88.563
1166.000 314.000 88.405
1167.000 314.000 89.053
1168.000 314.000 89.631
1169.000 314.000 89.695
1170.000 314.000 89.203
1171.000 314.000 88.300
1172.000 314.000 87.849
1173.000 314.000 87.991
1174.000 314.000 88.276
1175.000 314.000 88.400
1176.000 314.000 88.372
1177.000 314.000 88.319
1178.000 314.000 88.404
1179.000 314.000 88.568
1180.000 314.000 88.565
1181.000 314.000 88.469
1182.000 314.000 88.760
1183.000 314.000 89.029
1184.000 314.000 88.729
1185.000 314.000 88.104
1186.000 314.000 87.796
1187.000 314.000 88.166
1188.000 314.000 88.847
1189.000 314.000 89.163
1190.000 314.000 88.961
1191.000 314.000 88.943
1192.000 314.000 89.243
1193.000 314.000 89.430
1194.000 314.000 89.434
1195.000 314.000 89.234
1196.000 314.000 89.269
1197.000 314.000 89.203
1198.000 314.000 88.975
1199.000 314.000 89.158
1200.000 314.000 89.325
1201.000 314.000 89.267
1202.000 314.000 89.318
1203.000 314.000 89.681
1204.000 314.000 89.674
1205.000 314.000 89.176
1206.000 314.000 88.761
1207.000 314.000 88.756
1208.000 314.000 88.776
1209.000 314.000 88.796
1210.000 314.000 88.921
1211.000 314.000 89.408
1212.000 314.000 89.786
1213.000 314.000 89.959
1214.000 314.000 89.968
1215.000 314.000 89.738
1216.000 314.000 89.297
1217.000 314.000 88.964
1218.000 314.000 88.720
1219.000 314.000 88.773
1220.000 314.000 89.314
1221.000 314.000 89.718
1222.000 314.000 89.672
1223.000 314.000 89.322
1224.000 314.000 89.364
1225.000 314.000 89.616
1226.000 314.000 89.745
1227.000 314.000 89.725
1228.000 314.000 89.435
1229.000 314.000 88.915
1230.000 314.000 89.054
1231.000 314.000 89.475
1232.000 314.000 89.471
1233.000 314.000 89.303
1234.000 314.000 89.371
1235.000 314.000 89.159
1236.000 314.000 88.729
1237.000 314.000 88.606
1238.000 314.000 88.833
1239.000 314.000 89.233
1240.000 314.000 89.148
1241.000 314.000 88.677
1242.000 314.000 88.614
1243.000 314.000 88.733
1244.000 314.000 88.650
1245.000 314.000 88.660
1246.000 314.000 89.107
1247.000 314.000 89.637
1248.000 314.000 89.461
1249.000 314.000 88.932
1250.000 314.000 88.964
1251.000 314.000 88.969
1252.000 314.000 88.578
1253.000 314.000 88.681
1254.000 314.000 88.957
1255.000 314.000 88.599
1256.000 314.000 88.539
1257.000 314.000 88.763
1258.000 314.000 87.266
1259.000 314.000 82.012
1260.000 314.000 70.846
655.000 315.000 74.349
656.000 315.000 83.840
657.000 315.000 87.812
658.000 315.000 88.488
659.000 315.000 88.355
660.000 315.000 88.500
661.000 315.000 88.751
662.000 315.000 89.212
663.000 315.000 89.422
664.000 315.000 89.147
665.000 315.000 88.660
666.000 315.000 88.597
667.000 315.000 89.231
668.000 315.000 89.500
669.000 315.000 89.032
670.000 315.000 88.572
671.000 315.000 88.754
672.000 315.000 89.072
673.000 315.000 89.309
674.000 315.000 89.286
675.000 315.000 88.938
676.000 315.000 88.835
677.000 315.000 89.166
678.000 315.000 89.299
679.000 315.000 88.917
680.000 315.000 88.604
681.000 315.000 88.733
682.000 315.000 89.345
683.000 315.000 89.420
684.000 315.000 88.819
685.000 315.000 88.874
686.000 315.000 89.475
687.000 315.000 89.723
688.000 315.000 89.391
689.000 315.000 88.996
690.000 315.000 88.684
691.000 315.000 88.380
692.000 315.000 88.271
693.000 315.000 88.360
694.000 315.000 88.894
695.000 315.000 88.910
696.000 315.000 88.535
697.000 315.000 88.551
698.000 315.000 88.594
699.000 315.000 88.861
700.000 315.000 89.447
701.000 315.000 89.734
702.000 315.000 89.474
703.000 315.000 89.090
704.000 315.000 89.097
705.000 315.000 89.418
706.000 315.000 89.641
707.000 315.000 89.636
708.000 315.000 89.784
709.000 315.000 90.164
710.000 315.000 90.312
711.000 315.000 89.930
712.000 315.000 89.251
713.000 315.000 88.450
714.000 315.000 87.971
715.000 315.000 87.859
716.000 315.000 88.038
717.000 315.000 88.220
718.000 315.000 87.892
719.000 315.000 87.715
720.000 315.000 87.700
721.000 315.000 87.783
722.000 315.000 88.247
723.000 315.000 89.009
724.000 315.000 89.349
725.000 315.000 89.232
726.000 315.000 88.955
727.000 315.000 88.721
728.000 315.000 88.935
729.000 315.000 89.647
730.000 315.000 89.765
731.000 315.000 89.276
732.000 315.000 89.101
733.000 315.000 89.605
734.000 315.000 89.545
735.000 315.000 89.107
736.000 315.000 89.383
737.000 315.000 89.941
738.000 315.000 89.799
739.000 315.000 88.861
740.000 315.000 88.177
741.000 315.000 88.546
742.000 315.000 89.231
743.000 315.000 89.205
744.000 315.000 89.204
745.000 315.000 89.452
746.000 315.000 89.416
747.000 315.000 88.969
748.000 315.000 88.306
749.000 315.000 88.145
750.000 315.000 88.480
751.000 315.000 88.920
752.000 315.000 89.193
753.000 315.000 88.969
754.000 315.000 88.460
755.000 315.000 88.492
756.000 315.000 88.986
757.000 315.000 89.120
758.000 315.000 88.875
759.000 315.000 88.723
760.000 315.000 89.025
761.000 315.000 89.233
762.000 315.000 89.327
763.000 315.000 89.351
764.000 315.000 89.110
765.000 315.000 88.739
766.000 315.000 89.052
767.000 315.000 89.410
768.000 315.000 89.203
769.000 315.000 88.783
770.000 315.000 88.981
771.000 315.000 89.267
772.000 315.000 88.856
773.000 315.000 88.410
774.000 315.000 88.390
775.000 315.000 88.708
776.000 315.000 89.239
777.000 315.000 89.786
778.000 315.000 90.051
779.000 315.000 89.601
780.000 315.000 88.741
781.000 315.000 88.134
782.000 315.000 88.207
783.000 315.000 88.676
784.000 315.000 89.124
785.000 315.000 88.930
786.000 315.000 88.630
787.000 315.000 88.713
788.000 315.000 88.879
789.000 315.000 88.968
790.000 315.000 89.117
791.000 315.000 89.114
792.000 315.000 89.188
793.000 315.000 89.246
794.000 315.000 89.029
795.000 315.000 88.827
796.000 315.000 88.800
797.000 315.000 88.807
798.000 315.000 89.238
799.000 315.000 89.346
800.000 315.000 88.620
801.000 315.000 88.207
802.000 315.000 88.143
803.000 315.000 88.713
804.000 315.000 89.470
805.000 315.000 89.570
806.000 315.000 89.191
807.000 315.000 89.090
808.000 315.000 89.259
809.000 315.000 89.285
810.000 315.000 89.265
811.000 315.000 88.829
812.000 315.000 88.474
813.000 315.000 88.167
814.000 315.000 88.342
815.000 315.000 88.848
816.000 315.000 89.345
817.000 315.000 89.762
818.000 315.000 89.797
819.000 315.000 89.398
820.000 315.000 89.373
821.000 315.000 89.831
822.000 315.000 90.231
823.000 315.000 90.162
824.000 315.000 89.761
825.000 315.000 89.419
826.000 315.000 89.089
827.000 315.000 88.797
828.000 315.000 88.391
829.000 315.000 88.448
830.000 315.000 88.820
831.000 315.000 89.174
832.000 315.000 89.388
833.000 315.000 89.503
834.000 315.000 89.644
835.000 315.000 90.020
836.000 315.000 90.091
837.000 315.000 89.829
838.000 315.000 89.718
839.000 315.000 89.664
840.000 315.000 89.594
841.000 315.000 88.949
842.000 315.000 88.429
843.000 315.000 88.814
844.000 315.000 89.223
845.000 315.000 89.091
846.000 315.000 88.723
847.000 315.000 88.240
848.000 315.000 87.989
849.000 315.000 88.231
850.000 315.000 88.811
851.000 315.000 89.134
852.000 315.000 89.139
853.000 315.000 89.360
854.000 315.000 89.753
855.000 315.000 89.873
856.000 315.000 89.591
857.000 315.000 89.272
858.000 315.000 89.247
859.000 315.000 89.212
860.000 315.000 89.073
861.000 315.000 88.997
862.000 315.000 88.963
863.000 315.000 89.232
864.000 315.000 89.470
865.000 315.000 89.303
866.000 315.000 89.109
867.000 315.000 88.811
868.000 315.000 88.511
869.000 315.000 88.658
870.000 315.000 88.828
871.000 315.000 88.922
872.000 315.000 89.177
873.000 315.000 89.475
874.000 315.000 89.501
875.000 315.000 89.034
876.000 315.000 88.295
877.000 315.000 88.260
878.000 315.000 88.905
879.000 315.000 89.161
880.000 315.000 88.800
881.000 315.000 88.516
882.000 315.000 88.457
883.000 315.000 88.563
884.000 315.000 88.847
885.000 315.000 89.298
886.000 315.000 89.388
887.000 315.000 89.124
888.000 315.000 89.090
889.000 315.000 89.058
890.000 315.000 89.081
891.000 315.000 89.131
892.000 315.000 89.131
893.000 315.000 89.258
894.000 315.000 89.590
895.000 315.000 89.526
896.000 315.000 88.819
897.000 315.000 88.364
898.000 315.000 88.752
899.000 315.000 89.035
900.000 315.000 89.270
901.000 315.000 89.847
902.000 315.000 90.053
903.000 315.000 89.582
904.000 315.000 89.033
905.000 315.000 88.611
906.000 315.000 88.067
907.000 315.000 87.563
908.000 315.000 87.618
909.000 315.000 88.152
910.000 315.000 88.223
911.000 315.000 87.831
912.000 315.000 88.087
913.000 315.000 88.775
914.000 315.000 88.909
915.000 315.000 88.735
916.000 315.000 88.885
917.000 315.000 89.302
918.000 315.000 89.662
919.000 315.000 89.340
920.000 315.000 88.794
921.000 315.000 89.014
922.000 315.000 89.605
923.000 315.000 89.473
924.000 315.000 88.909
925.000 315.000 88.734
926.000 315.000 88.991
927.000 315.000 89.636
928.000 315.000 89.842
929.000 315.000 89.491
930.000 315.000 88.938
931.000 315.000 88.324
932.000 315.000 88.018
933.000 315.000 88.528
934.000 315.000 89.213
935.000 315.000 89.538
936.000 315.000 89.411
937.000 315.000 88.958
938.000 315.000 88.521
939.000 315.000 88.209
940.000 315.000 88.413
941.000 315.000 88.573
942.000 315.000 88.178
943.000 315.000 88.223
944.000 315.000 88.604
945.000 315.000 89.032
946.000 315.000 89.408
947.000 315.000 89.159
948.000 315.000 88.760
949.000 315.000 88.715
950.000 315.000 88.822
951.000 315.000 89.165
952.000 315.000 89.138
953.000 315.000 89.137
954.000 315.000 89.474
955.000 315.000 89.687
956.000 315.000 89.776
957.000 315.000 89.622
958.000 315.000 89.467
959.000 315.000 89.253
960.000 315.000 88.980
961.000 315.000 89.121
962.000 315.000 89.112
963.000 315.000 88.888
964.000 315.000 88.779
965.000 315.000 88.843
966.000 315.000 88.820
967.000 315.000 89.014
968.000 315.000 89.187
969.000 315.000 89.017
970.000 315.000 89.037
971.000 315.000 89.166
972.000 315.000 89.119
973.000 315.000 88.951
974.000 315.000 88.976
975.000 315.000 88.787
976.000 315.000 88.574
977.000 315.000 88.890
978.000 315.000 89.241
979.000 315.000 89.122
980.000 315.000 88.608
981.000 315.000 88.522
982.000 315.000 89.002
983.000 315.000 89.286
984.000 315.000 89.182
985.000 315.000 89.207
986.000 315.000 89.440
987.000 315.000 89.156
988.000 315.000 88.938
989.000 315.000 88.974
990.000 315.000 89.019
991.000 315.000 88.797
992.000 315.000 88.302
993.000 315.000 88.123
994.000 315.000 88.930
995.000 315.000 89.631
996.000 315.000 89.280
997.000 315.000 88.724
998.000 315.000 88.372
999.000 315.000 88.349
1000.000 315.000 88.645
1001.000 315.000 88.511
1002.000 315.000 88.413
1003.000 315.000 88.881
1004.000 315.000 89.486
1005.000 315.000 89.770
1006.000 315.000 89.775
1007.000 315.000 89.678
1008.000 315.000 89.682
1009.000 315.000 89.339
1010.000 315.000 88.885
1011.000 315.000 88.676
1012.000 315.000 88.533
1013.000 315.000 88.334
1014.000 315.000 88.444
1015.000 315.000 88.812
1016.000 315.000 89.262
1017.000 315.000 89.391
1018.000 315.000 88.548
1019.000 315.000 87.965
1020.000 315.000 88.467
1021.000 315.000 89.483
1022.000 315.000 89.882
1023.000 315.000 89.642
1024.000 315.000 89.392
1025.000 315.000 89.022
1026.000 315.000 88.894
1027.000 315.000 89.120
1028.000 315.000 89.611
1029.000 315.000 89.670
1030.000 315.000 88.988
1031.000 315.000 88.245
1032.000 315.000 88.134
1033.000 315.000 88.385
1034.000 315.000 89.034
1035.000 315.000 89.940
1036.000 315.000 90.317
1037.000 315.000 90.158
1038.000 315.000 89.891
1039.000 315.000 89.334
1040.000 315.000 88.613
1041.000 315.000 88.434
1042.000 315.000 88.762
1043.000 315.000 89.489
1044.000 315.000 90.130
1045.000 315.000 89.871
1046.000 315.000 89.296
1047.000 315.000 89.354
1048.000 315.000 89.977
1049.000 315.000 90.219
1050.000 315.000 90.015
1051.000 315.000 89.486
1052.000 315.000 88.964
1053.000 315.000 88.896
1054.000 315.000 89.004
1055.000 315.000 88.754
1056.000 315.000 88.288
1057.000 315.000 88.361
1058.000 315.000 88.881
1059.000 315.000 89.462
1060.000 315.000 89.758
1061.000 315.000 89.424
1062.000 315.000 88.805
1063.000 315.000 88.363
1064.000 315.000 88.245
1065.000 315.000 88.471
1066.000 315.000 88.912
1067.000 315.000 89.329
1068.000 315.000 88.914
1069.000 315.000 88.163
1070.000 315.000 88.054
1071.000 315.000 88.820
1072.000 315.000 89.870
1073.000 315.000 90.385
1074.000 315.000 90.442
1075.000 315.000 90.143
1076.000 315.000 89.479
1077.000 315.000 89.090
1078.000 315.000 88.684
1079.000 315.000 88.173
1080.000 315.000 88.011
1081.000 315.000 88.286
1082.000 315.000 88.458
1083.000 315.000 88.567
1084.000 315.000 88.560
1085.000 315.000 88.501
1086.000 315.000 88.587
1087.000 315.000 88.705
1088.000 315.000 88.824
1089.000 315.000 88.938
1090.000 315.000 89.050
1091.000 315.000 89.093
1092.000 315.000 88.924
1093.000 315.000 88.946
1094.000 315.000 89.125
1095.000 315.000 89.094
1096.000 315.000 89.136
1097.000 315.000 89.125
1098.000 315.000 88.676
1099.000 315.000 88.411
1100.000 315.000 88.526
1101.000 315.000 88.467
1102.000 315.000 88.394
1103.000 315.000 88.569
1104.000 315.000 88.876
1105.000 315.000 89.092
1106.000 315.000 89.625
1107.000 315.000 90.227
1108.000 315.000 90.224
1109.000 315.000 89.781
1110.000 315.000 89.632
1111.000 315.000 89.463
1112.000 315.000 89.123
1113.000 315.000 88.677
1114.000 315.000 88.483
1115.000 315.000 88.539
1116.000 315.000 88.842
1117.000 315.000 89.258
1118.000 315.000 89.416
1119.000 315.000 89.500
1120.000 315.000 89.263
1121.000 315.000 88.902
1122.000 315.000 88.883
1123.000 315.000 89.334
1124.000 315.000 89.455
1125.000 315.000 89.517
1126.000 315.000 89.562
1127.000 315.000 89.324
1128.000 315.000 88.913
1129.000 315.000 88.590
1130.000 315.000 89.011
1131.000 315.000 89.600
1132.000 315.000 89.644
1133.000 315.000 89.714
1134.000 315.000 89.782
1135.000 315.000 89.329
1136.000 315.000 88.728
1137.000 315.000 88.739
1138.000 315.000 88.935
1139.000 315.000 88.961
1140.000 315.000 88.925
1141.000 315.000 89.190
1142.000 315.000 89.500
1143.000 315.000 89.744
1144.000 315.000 89.839
1145.000 315.000 89.428
1146.000 315.000 88.964
1147.000 315.000 88.905
1148.000 315.000 88.905
1149.000 315.000 88.945
1150.000 315.000 88.966
1151.000 315.000 89.240
1152.000 315.000 89.477
1153.000 315.000 89.584
1154.000 315.000 89.500
1155.000 315.000 89.270
1156.000 315.000 89.248
1157.000 315.000 89.198
1158.000 315.000 89.141
1159.000 315.000 88.867
1160.000 315.000 88.264
1161.000 315.000 88.363
1162.000 315.000 89.369
1163.000 315.000 89.888
1164.000 315.000 89.589
1165.000 315.000 89.137
1166.000 315.000 88.983
1167.000 315.000 89.193
1168.000 315.000 89.452
1169.000 315.000 89.571
1170.000 315.000 89.275
1171.000 315.000 88.550
1172.000 315.000 88.004
1173.000 315.000 87.774
1174.000 315.000 87.900
1175.000 315.000 88.221
1176.000 315.000 88.421
1177.000 315.000 88.463
1178.000 315.000 88.736
1179.000 315.000 88.986
1180.000 315.000 88.864
1181.000 315.000 88.755
1182.000 315.000 88.817
1183.000 315.000 89.038
1184.000 315.000 89.094
1185.000 315.000 88.734
1186.000 315.000 88.378
1187.000 315.000 88.732
1188.000 315.000 89.366
1189.000 315.000 89.518
1190.000 315.000 89.360
1191.000 315.000 89.559
1192.000 315.000 89.743
1193.000 315.000 89.616
1194.000 315.000 89.690
1195.000 315.000 89.864
1196.000 315.000 89.711
1197.000 315.000 88.961
1198.000 315.000 88.398
1199.000 315.000 88.786
1200.000 315.000 89.460
1201.000 315.000 89.634
1202.000 315.000 89.519
1203.000 315.000 89.778
1204.000 315.000 89.645
1205.000 315.000 89.104
1206.000 315.000 88.917
1207.000 315.000 89.110
1208.000 315.000 89.030
1209.000 315.000 89.115
1210.000 315.000 89.496
1211.000 315.000 89.986
1212.000 315.000 90.020
1213.000 315.000 89.660
1214.000 315.000 89.229
1215.000 315.000 89.148
1216.000 315.000 89.288
1217.000 315.000 89.002
1218.000 315.000 88.436
1219.000 315.000 88.258
1220.000 315.000 88.915
1221.000 315.000 89.731
1222.000 315.000 90.209
1223.000 315.000 90.131
1224.000 315.000 89.864
1225.000 315.000 89.750
1226.000 315.000 89.604
1227.000 315.000 89.392
1228.000 315.000 89.241
1229.000 315.000 89.193
1230.000 315.000 89.546
1231.000 315.000 89.861
1232.000 315.000 89.811
1233.000 315.000 89.517
1234.000 315.000 89.439
1235.000 315.000 89.292
1236.000 315.000 89.098
1237.000 315.000 88.949
1238.000 315.000 89.022
1239.000 315.000 89.073
1240.000 315.000 88.756
1241.000 315.000 88.445
1242.000 315.000 88.654
1243.000 315.000 89.000
1244.000 315.000 88.802
1245.000 315.000 88.405
1246.000 315.000 88.416
1247.000 315.000 88.759
1248.000 315.000 88.920
1249.000 315.000 88.963
1250.000 315.000 89.172
1251.000 315.000 89.146
1252.000 315.000 88.669
1253.000 315.000 88.717
1254.000 315.000 88.835
1255.000 315.000 88.464
1256.000 315.000 88.446
1257.000 315.000 89.078
1258.000 315.000 89.066
1259.000 315.000 87.479
1260.000 315.000 82.410
1261.000 315.000 72.568
654.000 316.000 74.480
655.000 316.000 83.834
656.000 316.000 88.630
657.000 316.000 89.375
658.000 316.000 88.512
659.000 316.000 87.945
660.000 316.000 88.278
661.000 316.000 88.876
662.000 316.000 89.260
663.000 316.000 89.183
664.000 316.000 88.907
665.000 316.000 88.828
666.000 316.000 88.737
667.000 316.000 88.855
668.000 316.000 88.985
669.000 316.000 88.850
670.000 316.000 88.598
671.000 316.000 88.567
672.000 316.000 88.728
673.000 316.000 89.209
674.000 316.000 89.307
675.000 316.000 88.855
676.000 316.000 88.634
677.000 316.000 88.745
678.000 316.000 88.766
679.000 316.000 88.595
680.000 316.000 88.515
681.000 316.000 88.728
682.000 316.000 89.117
683.000 316.000 89.100
684.000 316.000 88.783
685.000 316.000 88.908
686.000 316.000 89.481
687.000 316.000 89.978
688.000 316.000 89.888
689.000 316.000 89.510
690.000 316.000 89.002
691.000 316.000 88.503
692.000 316.000 88.297
693.000 316.000 88.505
694.000 316.000 89.090
695.000 316.000 89.252
696.000 316.000 88.936
697.000 316.000 88.594
698.000 316.000 88.380
699.000 316.000 88.823
700.000 316.000 89.651
701.000 316.000 89.751
702.000 316.000 89.339
703.000 316.000 89.218
704.000 316.000 89.389
705.000 316.000 89.224
706.000 316.000 88.800
707.000 316.000 88.766
708.000 316.000 89.224
709.000 316.000 89.750
710.000 316.000 89.818
711.000 316.000 89.451
712.000 316.000 88.957
713.000 316.000 88.402
714.000 316.000 88.184
715.000 316.000 88.171
716.000 316.000 88.224
717.000 316.000 88.457
718.000 316.000 88.346
719.000 316.000 88.175
720.000 316.000 87.937
721.000 316.000 87.628
722.000 316.000 87.825
723.000 316.000 88.569
724.000 316.000 89.083
725.000 316.000 89.109
726.000 316.000 88.895
727.000 316.000 88.606
728.000 316.000 88.752
729.000 316.000 89.470
730.000 316.000 89.534
731.000 316.000 88.805
732.000 316.000 88.655
733.000 316.000 89.106
734.000 316.000 89.013
735.000 316.000 88.775
736.000 316.000 89.017
737.000 316.000 89.369
738.000 316.000 89.235
739.000 316.000 88.446
740.000 316.000 88.081
741.000 316.000 88.528
742.000 316.000 88.840
743.000 316.000 88.416
744.000 316.000 88.447
745.000 316.000 89.108
746.000 316.000 89.384
747.000 316.000 89.084
748.000 316.000 88.576
749.000 316.000 88.572
750.000 316.000 88.990
751.000 316.000 89.146
752.000 316.000 89.198
753.000 316.000 89.203
754.000 316.000 88.948
755.000 316.000 88.799
756.000 316.000 89.051
757.000 316.000 89.012
758.000 316.000 88.544
759.000 316.000 88.467
760.000 316.000 88.942
761.000 316.000 89.250
762.000 316.000 89.212
763.000 316.000 89.112
764.000 316.000 88.817
765.000 316.000 88.735
766.000 316.000 89.061
767.000 316.000 89.278
768.000 316.000 89.234
769.000 316.000 88.902
770.000 316.000 88.829
771.000 316.000 88.864
772.000 316.000 88.557
773.000 316.000 88.437
774.000 316.000 88.834
775.000 316.000 89.628
776.000 316.000 90.106
777.000 316.000 90.263
778.000 316.000 90.259
779.000 316.000 89.732
780.000 316.000 88.711
781.000 316.000 87.882
782.000 316.000 87.812
783.000 316.000 88.512
784.000 316.000 89.161
785.000 316.000 88.847
786.000 316.000 88.341
787.000 316.000 88.396
788.000 316.000 88.938
789.000 316.000 89.490
790.000 316.000 89.714
791.000 316.000 89.565
792.000 316.000 89.354
793.000 316.000 89.127
794.000 316.000 88.870
795.000 316.000 88.813
796.000 316.000 88.853
797.000 316.000 88.980
798.000 316.000 89.379
799.000 316.000 89.485
800.000 316.000 88.874
801.000 316.000 88.347
802.000 316.000 88.069
803.000 316.000 88.700
804.000 316.000 89.762
805.000 316.000 89.864
806.000 316.000 89.361
807.000 316.000 89.277
808.000 316.000 89.416
809.000 316.000 89.443
810.000 316.000 89.372
811.000 316.000 88.946
812.000 316.000 88.743
813.000 316.000 88.648
814.000 316.000 88.965
815.000 316.000 89.518
816.000 316.000 90.040
817.000 316.000 90.242
818.000 316.000 89.869
819.000 316.000 89.132
820.000 316.000 88.894
821.000 316.000 89.407
822.000 316.000 89.916
823.000 316.000 89.833
824.000 316.000 89.579
825.000 316.000 89.545
826.000 316.000 89.301
827.000 316.000 89.018
828.000 316.000 88.734
829.000 316.000 88.729
830.000 316.000 88.981
831.000 316.000 89.245
832.000 316.000 89.446
833.000 316.000 89.638
834.000 316.000 89.739
835.000 316.000 89.990
836.000 316.000 90.095
837.000 316.000 89.916
838.000 316.000 89.604
839.000 316.000 89.173
840.000 316.000 88.916
841.000 316.000 88.615
842.000 316.000 88.509
843.000 316.000 88.916
844.000 316.000 89.140
845.000 316.000 89.028
846.000 316.000 88.885
847.000 316.000 88.575
848.000 316.000 88.116
849.000 316.000 88.228
850.000 316.000 89.047
851.000 316.000 89.621
852.000 316.000 89.402
853.000 316.000 89.322
854.000 316.000 89.732
855.000 316.000 90.024
856.000 316.000 89.921
857.000 316.000 89.470
858.000 316.000 88.996
859.000 316.000 88.713
860.000 316.000 88.695
861.000 316.000 88.953
862.000 316.000 89.205
863.000 316.000 89.218
864.000 316.000 89.266
865.000 316.000 89.189
866.000 316.000 88.996
867.000 316.000 88.479
868.000 316.000 88.134
869.000 316.000 88.456
870.000 316.000 88.887
871.000 316.000 89.202
872.000 316.000 89.349
873.000 316.000 89.253
874.000 316.000 89.293
875.000 316.000 89.088
876.000 316.000 88.563
877.000 316.000 88.596
878.000 316.000 89.022
879.000 316.000 89.358
880.000 316.000 89.037
881.000 316.000 88.535
882.000 316.000 88.388
883.000 316.000 88.664
884.000 316.000 89.081
885.000 316.000 89.316
886.000 316.000 89.457
887.000 316.000 89.526
888.000 316.000 89.758
889.000 316.000 89.754
890.000 316.000 89.499
891.000 316.000 89.288
892.000 316.000 89.166
893.000 316.000 89.032
894.000 316.000 89.439
895.000 316.000 89.644
896.000 316.000 89.074
897.000 316.000 88.421
898.000 316.000 88.472
899.000 316.000 88.660
900.000 316.000 88.990
901.000 316.000 89.499
902.000 316.000 89.501
903.000 316.000 88.944
904.000 316.000 88.714
905.000 316.000 88.788
906.000 316.000 88.446
907.000 316.000 87.919
908.000 316.000 88.044
909.000 316.000 88.513
910.000 316.000 88.366
911.000 316.000 87.868
912.000 316.000 88.049
913.000 316.000 88.537
914.000 316.000 88.544
915.000 316.000 88.547
916.000 316.000 89.172
917.000 316.000 89.643
918.000 316.000 89.372
919.000 316.000 88.903
920.000 316.000 88.967
921.000 316.000 89.395
922.000 316.000 89.741
923.000 316.000 89.533
924.000 316.000 89.033
925.000 316.000 88.855
926.000 316.000 89.091
927.000 316.000 89.544
928.000 316.000 89.504
929.000 316.000 89.154
930.000 316.000 88.862
931.000 316.000 88.555
932.000 316.000 88.322
933.000 316.000 88.533
934.000 316.000 88.909
935.000 316.000 89.012
936.000 316.000 89.111
937.000 316.000 89.371
938.000 316.000 89.328
939.000 316.000 88.834
940.000 316.000 88.700
941.000 316.000 88.701
942.000 316.000 88.429
943.000 316.000 88.596
944.000 316.000 89.116
945.000 316.000 89.462
946.000 316.000 89.436
947.000 316.000 88.882
948.000 316.000 88.649
949.000 316.000 89.120
950.000 316.000 89.490
951.000 316.000 89.715
952.000 316.000 89.508
953.000 316.000 89.304
954.000 316.000 89.303
955.000 316.000 89.178
956.000 316.000 89.281
957.000 316.000 89.300
958.000 316.000 89.187
959.000 316.000 89.015
960.000 316.000 88.745
961.000 316.000 88.638
962.000 316.000 88.538
963.000 316.000 88.469
964.000 316.000 88.529
965.000 316.000 88.577
966.000 316.000 88.469
967.000 316.000 88.807
968.000 316.000 89.410
969.000 316.000 89.498
970.000 316.000 89.426
971.000 316.000 89.548
972.000 316.000 89.479
973.000 316.000 88.926
974.000 316.000 88.489
975.000 316.000 88.372
976.000 316.000 88.603
977.000 316.000 89.188
978.000 316.000 89.291
979.000 316.000 88.798
980.000 316.000 88.500
981.000 316.000 88.703
982.000 316.000 89.040
983.000 316.000 89.066
984.000 316.000 88.832
985.000 316.000 88.988
986.000 316.000 89.391
987.000 316.000 89.223
988.000 316.000 88.886
989.000 316.000 88.532
990.000 316.000 88.589
991.000 316.000 88.891
992.000 316.000 88.734
993.000 316.000 88.117
994.000 316.000 88.492
995.000 316.000 89.357
996.000 316.000 89.214
997.000 316.000 88.538
998.000 316.000 88.346
999.000 316.000 88.734
1000.000 316.000 89.197
1001.000 316.000 89.073
1002.000 316.000 88.902
1003.000 316.000 89.072
1004.000 316.000 89.358
1005.000 316.000 89.661
1006.000 316.000 89.777
1007.000 316.000 89.928
1008.000 316.000 90.123
1009.000 316.000 89.722
1010.000 316.000 88.993
1011.000 316.000 88.566
1012.000 316.000 88.374
1013.000 316.000 88.443
1014.000 316.000 88.793
1015.000 316.000 89.214
1016.000 316.000 89.414
1017.000 316.000 89.549
1018.000 316.000 89.063
1019.000 316.000 88.582
1020.000 316.000 88.795
1021.000 316.000 89.560
1022.000 316.000 89.690
1023.000 316.000 89.259
1024.000 316.000 89.116
1025.000 316.000 88.927
1026.000 316.000 88.846
1027.000 316.000 89.356
1028.000 316.000 90.094
1029.000 316.000 89.941
1030.000 316.000 88.874
1031.000 316.000 88.084
1032.000 316.000 88.137
1033.000 316.000 88.551
1034.000 316.000 89.087
1035.000 316.000 89.776
1036.000 316.000 89.907
1037.000 316.000 89.750
1038.000 316.000 89.739
1039.000 316.000 89.496
1040.000 316.000 88.850
1041.000 316.000 88.719
1042.000 316.000 89.053
1043.000 316.000 89.578
1044.000 316.000 89.954
1045.000 316.000 89.790
1046.000 316.000 89.434
1047.000 316.000 89.560
1048.000 316.000 89.944
1049.000 316.000 89.880
1050.000 316.000 89.632
1051.000 316.000 89.180
1052.000 316.000 88.621
1053.000 316.000 88.649
1054.000 316.000 89.000
1055.000 316.000 88.973
1056.000 316.000 88.610
1057.000 316.000 88.852
1058.000 316.000 89.559
1059.000 316.000 89.968
1060.000 316.000 90.041
1061.000 316.000 89.942
1062.000 316.000 89.575
1063.000 316.000 89.042
1064.000 316.000 88.465
1065.000 316.000 88.339
1066.000 316.000 88.499
1067.000 316.000 88.746
1068.000 316.000 88.650
1069.000 316.000 88.340
1070.000 316.000 88.107
1071.000 316.000 88.540
1072.000 316.000 89.394
1073.000 316.000 89.897
1074.000 316.000 90.202
1075.000 316.000 89.891
1076.000 316.000 88.950
1077.000 316.000 88.456
1078.000 316.000 88.267
1079.000 316.000 87.982
1080.000 316.000 87.882
1081.000 316.000 88.082
1082.000 316.000 88.243
1083.000 316.000 88.351
1084.000 316.000 88.505
1085.000 316.000 88.629
1086.000 316.000 88.626
1087.000 316.000 88.451
1088.000 316.000 88.365
1089.000 316.000 88.476
1090.000 316.000 88.538
1091.000 316.000 88.608
1092.000 316.000 88.682
1093.000 316.000 88.876
1094.000 316.000 88.788
1095.000 316.000 88.690
1096.000 316.000 88.945
1097.000 316.000 89.178
1098.000 316.000 89.034
1099.000 316.000 88.881
1100.000 316.000 88.783
1101.000 316.000 88.476
1102.000 316.000 88.352
1103.000 316.000 88.729
1104.000 316.000 88.928
1105.000 316.000 88.856
1106.000 316.000 89.320
1107.000 316.000 90.169
1108.000 316.000 90.425
1109.000 316.000 89.987
1110.000 316.000 89.614
1111.000 316.000 89.387
1112.000 316.000 88.944
1113.000 316.000 88.345
1114.000 316.000 88.116
1115.000 316.000 88.223
1116.000 316.000 88.418
1117.000 316.000 88.639
1118.000 316.000 89.014
1119.000 316.000 89.438
1120.000 316.000 89.331
1121.000 316.000 89.060
1122.000 316.000 88.942
1123.000 316.000 89.018
1124.000 316.000 88.840
1125.000 316.000 88.813
1126.000 316.000 89.088
1127.000 316.000 89.036
1128.000 316.000 88.712
1129.000 316.000 88.445
1130.000 316.000 88.827
1131.000 316.000 89.367
1132.000 316.000 89.632
1133.000 316.000 89.861
1134.000 316.000 89.785
1135.000 316.000 89.152
1136.000 316.000 88.803
1137.000 316.000 89.141
1138.000 316.000 89.468
1139.000 316.000 89.330
1140.000 316.000 89.043
1141.000 316.000 89.103
1142.000 316.000 89.383
1143.000 316.000 89.666
1144.000 316.000 89.792
1145.000 316.000 89.674
1146.000 316.000 89.478
1147.000 316.000 89.326
1148.000 316.000 89.024
1149.000 316.000 88.766
1150.000 316.000 88.530
1151.000 316.000 88.828
1152.000 316.000 89.351
1153.000 316.000 89.478
1154.000 316.000 89.330
1155.000 316.000 89.050
1156.000 316.000 88.765
1157.000 316.000 88.416
1158.000 316.000 88.482
1159.000 316.000 88.654
1160.000 316.000 88.227
1161.000 316.000 88.303
1162.000 316.000 89.261
1163.000 316.000 89.912
1164.000 316.000 89.891
1165.000 316.000 89.745
1166.000 316.000 89.541
1167.000 316.000 89.253
1168.000 316.000 89.077
1169.000 316.000 89.012
1170.000 316.000 88.928
1171.000 316.000 88.718
1172.000 316.000 88.330
1173.000 316.000 87.869
1174.000 316.000 87.930
1175.000 316.000 88.339
1176.000 316.000 88.708
1177.000 316.000 89.065
1178.000 316.000 89.610
1179.000 316.000 89.712
1180.000 316.000 89.243
1181.000 316.000 88.904
1182.000 316.000 88.795
1183.000 316.000 89.155
1184.000 316.000 89.562
1185.000 316.000 89.547
1186.000 316.000 89.155
1187.000 316.000 88.974
1188.000 316.000 89.024
1189.000 316.000 89.094
1190.000 316.000 89.378
1191.000 316.000 89.840
1192.000 316.000 89.724
1193.000 316.000 89.219
1194.000 316.000 89.361
1195.000 316.000 89.805
1196.000 316.000 89.530
1197.000 316.000 88.614
1198.000 316.000 88.239
1199.000 316.000 88.819
1200.000 316.000 89.570
1201.000 316.000 89.863
1202.000 316.000 89.844
1203.000 316.000 89.941
1204.000 316.000 89.574
1205.000 316.000 89.092
1206.000 316.000 89.033
1207.000 316.000 89.236
1208.000 316.000 89.130
1209.000 316.000 89.267
1210.000 316.000 89.655
1211.000 316.000 89.984
1212.000 316.000 89.958
1213.000 316.000 89.533
1214.000 316.000 88.910
1215.000 316.000 88.691
1216.000 316.000 89.086
1217.000 316.000 89.056
1218.000 316.000 88.582
1219.000 316.000 88.361
1220.000 316.000 88.967
1221.000 316.000 89.953
1222.000 316.000 90.635
1223.000 316.000 90.628
1224.000 316.000 90.137
1225.000 316.000 89.653
1226.000 316.000 89.367
1227.000 316.000 89.155
1228.000 316.000 89.017
1229.000 316.000 89.126
1230.000 316.000 89.273
1231.000 316.000 89.371
1232.000 316.000 89.458
1233.000 316.000 89.285
1234.000 316.000 89.115
1235.000 316.000 89.118
1236.000 316.000 89.397
1237.000 316.000 89.673
1238.000 316.000 89.546
1239.000 316.000 88.861
1240.000 316.000 88.223
1241.000 316.000 88.042
1242.000 316.000 88.439
1243.000 316.000 88.992
1244.000 316.000 88.808
1245.000 316.000 88.393
1246.000 316.000 88.160
1247.000 316.000 88.091
1248.000 316.000 88.357
1249.000 316.000 88.823
1250.000 316.000 89.059
1251.000 316.000 88.871
1252.000 316.000 88.397
1253.000 316.000 88.535
1254.000 316.000 88.863
1255.000 316.000 88.846
1256.000 316.000 88.772
1257.000 316.000 89.084
1258.000 316.000 88.984
1259.000 316.000 88.281
1260.000 316.000 87.078
1261.000 316.000 83.079
1262.000 316.000 74.084
652.000 317.000 74.081
653.000 317.000 80.047
654.000 317.000 84.756
655.000 317.000 88.555
656.000 317.000 90.114
657.000 317.000 89.699
658.000 317.000 88.563
659.000 317.000 87.942
660.000 317.000 88.190
661.000 317.000 88.689
662.000 317.000 88.883
663.000 317.000 88.872
664.000 317.000 88.880
665.000 317.000 89.127
666.000 317.000 89.040
667.000 317.000 88.800
668.000 317.000 88.596
669.000 317.000 88.663
670.000 317.000 88.643
671.000 317.000 88.236
672.000 317.000 88.165
673.000 317.000 88.739
674.000 317.000 89.058
675.000 317.000 88.813
676.000 317.000 88.543
677.000 317.000 88.288
678.000 317.000 88.369
679.000 317.000 88.604
680.000 317.000 88.631
681.000 317.000 88.600
682.000 317.000 88.649
683.000 317.000 88.650
684.000 317.000 88.607
685.000 317.000 88.665
686.000 317.000 89.079
687.000 317.000 89.686
688.000 317.000 89.829
689.000 317.000 89.656
690.000 317.000 89.203
691.000 317.000 88.626
692.000 317.000 88.468
693.000 317.000 88.720
694.000 317.000 89.049
695.000 317.000 89.237
696.000 317.000 89.222
697.000 317.000 88.737
698.000 317.000 88.357
699.000 317.000 88.775
700.000 317.000 89.487
701.000 317.000 89.499
702.000 317.000 89.343
703.000 317.000 89.624
704.000 317.000 89.706
705.000 317.000 89.182
706.000 317.000 88.504
707.000 317.000 88.489
708.000 317.000 88.870
709.000 317.000 89.178
710.000 317.000 89.118
711.000 317.000 88.780
712.000 317.000 88.502
713.000 317.000 88.565
714.000 317.000 89.082
715.000 317.000 89.292
716.000 317.000 88.940
717.000 317.000 88.827
718.000 317.000 88.860
719.000 317.000 88.697
720.000 317.000 88.365
721.000 317.000 88.074
722.000 317.000 88.200
723.000 317.000 88.461
724.000 317.000 88.563
725.000 317.000 88.556
726.000 317.000 88.589
727.000 317.000 88.648
728.000 317.000 88.754
729.000 317.000 89.143
730.000 317.000 89.183
731.000 317.000 88.828
732.000 317.000 88.969
733.000 317.000 89.150
734.000 317.000 88.794
735.000 317.000 88.548
736.000 317.000 88.605
737.000 317.000 88.680
738.000 317.000 88.636
739.000 317.000 88.057
740.000 317.000 87.909
741.000 317.000 88.476
742.000 317.000 88.735
743.000 317.000 88.252
744.000 317.000 88.112
745.000 317.000 88.712
746.000 317.000 89.106
747.000 317.000 88.860
748.000 317.000 88.447
749.000 317.000 88.562
750.000 317.000 89.081
751.000 317.000 89.365
752.000 317.000 89.449
753.000 317.000 89.532
754.000 317.000 89.505
755.000 317.000 89.249
756.000 317.000 89.172
757.000 317.000 88.989
758.000 317.000 88.652
759.000 317.000 88.653
760.000 317.000 88.886
761.000 317.000 89.014
762.000 317.000 89.103
763.000 317.000 89.189
764.000 317.000 88.985
765.000 317.000 89.063
766.000 317.000 89.105
767.000 317.000 88.724
768.000 317.000 88.588
769.000 317.000 88.567
770.000 317.000 88.537
771.000 317.000 88.641
772.000 317.000 88.630
773.000 317.000 88.585
774.000 317.000 88.909
775.000 317.000 89.781
776.000 317.000 90.009
777.000 317.000 89.793
778.000 317.000 89.811
779.000 317.000 89.596
780.000 317.000 88.851
781.000 317.000 88.023
782.000 317.000 87.784
783.000 317.000 88.432
784.000 317.000 88.971
785.000 317.000 88.548
786.000 317.000 88.050
787.000 317.000 88.232
788.000 317.000 89.002
789.000 317.000 89.793
790.000 317.000 90.088
791.000 317.000 90.033
792.000 317.000 89.806
793.000 317.000 89.408
794.000 317.000 88.826
795.000 317.000 88.600
796.000 317.000 88.681
797.000 317.000 88.944
798.000 317.000 89.329
799.000 317.000 89.534
800.000 317.000 89.169
801.000 317.000 88.629
802.000 317.000 88.299
803.000 317.000 88.862
804.000 317.000 89.901
805.000 317.000 89.839
806.000 317.000 89.127
807.000 317.000 88.972
808.000 317.000 88.951
809.000 317.000 89.081
810.000 317.000 89.319
811.000 317.000 89.069
812.000 317.000 88.773
813.000 317.000 88.832
814.000 317.000 89.406
815.000 317.000 89.815
816.000 317.000 89.903
817.000 317.000 89.790
818.000 317.000 89.356
819.000 317.000 88.724
820.000 317.000 88.627
821.000 317.000 89.305
822.000 317.000 89.935
823.000 317.000 89.876
824.000 317.000 89.665
825.000 317.000 89.667
826.000 317.000 89.555
827.000 317.000 89.354
828.000 317.000 89.216
829.000 317.000 89.198
830.000 317.000 89.434
831.000 317.000 89.498
832.000 317.000 89.412
833.000 317.000 89.593
834.000 317.000 89.881
835.000 317.000 89.983
836.000 317.000 89.794
837.000 317.000 89.481
838.000 317.000 89.237
839.000 317.000 89.034
840.000 317.000 89.015
841.000 317.000 89.081
842.000 317.000 89.016
843.000 317.000 88.926
844.000 317.000 88.786
845.000 317.000 88.637
846.000 317.000 88.721
847.000 317.000 88.909
848.000 317.000 88.603
849.000 317.000 88.482
850.000 317.000 89.175
851.000 317.000 89.690
852.000 317.000 89.303
853.000 317.000 89.053
854.000 317.000 89.305
855.000 317.000 89.529
856.000 317.000 89.797
857.000 317.000 89.646
858.000 317.000 89.089
859.000 317.000 88.481
860.000 317.000 88.326
861.000 317.000 88.751
862.000 317.000 88.952
863.000 317.000 88.571
864.000 317.000 88.511
865.000 317.000 88.723
866.000 317.000 88.831
867.000 317.000 88.480
868.000 317.000 88.276
869.000 317.000 88.759
870.000 317.000 89.208
871.000 317.000 89.488
872.000 317.000 89.587
